ply
format ascii 1.0
element vertex 1281
property float x
property float y
property float z
property uchar red
property uchar green
property uchar blue
end_header
0.405536 -1.23012 13.5758 132 128 114
-1.27041 -1.32026 14.5513 117 118 108
0.925596 -1.17223 13.5324 123 120 106
0.382072 -1.14617 13.5583 104 96 78
0.674503 -1.13215 13.5513 188 196 188
2.24123 -1.11522 13.3022 166 152 142
-0.516781 -1.13252 13.8024 112 112 102
0.395467 -1.10225 13.5277 119 112 96
-0.208496 -1.09406 13.6152 115 110 98
-0.535085 -1.0944 13.7996 178 180 174
1.43898 -1.04227 13.4326 138 135 120
2.15281 -0.969011 13.4741 130 124 104
-0.318373 -0.803777 13.6491 106 104 92
1.9377 -0.799422 13.4088 120 118 105
0.171451 -0.779405 13.5216 136 142 138
0.815122 -0.773119 13.4185 190 198 194
-0.0179022 -0.775832 13.6004 122 128 125
0.424946 -0.760229 13.5052 137 144 141
0.225975 -0.745377 13.5256 192 202 202
0.286141 -0.724001 13.5016 146 152 148
1.42076 -0.695192 13.3815 125 124 108
-0.427059 -0.685604 13.6887 135 140 136
1.13074 -0.646843 13.3976 135 134 122
1.82641 -0.643721 13.3478 130 131 116
0.57322 -0.622057 13.4533 150 156 154
-1.28939 -0.680252 14.2742 126 127 114
0.816648 -0.578348 13.4388 138 142 137
1.84991 -0.589902 13.5016 114 112 99
3.78209 -0.59026 13.6837 93 74 68
1.25156 -0.445879 13.5191 152 158 154
-5.58421 -0.495139 15.3478 132 116 113
0.927243 -0.380567 13.466 144 154 156
-1.18532 -0.383444 14.1973 158 158 149
-5.70451 -0.377281 14.9324 72 64 54
-1.12228 -0.323118 14.1866 140 140 130
0.844846 -0.286342 13.517 120 124 124
1.14757 -0.288018 13.4705 120 129 131
1.0295 -0.231704 13.5051 122 125 121
0.438976 -0.150055 13.573 130 134 130
-0.680818 -0.0759859 14.0074 152 158 158
0.93096 -0.0658729 13.5093 152 163 164
1.32324 -0.0423435 13.5855 140 138 122
-5.67039 -0.0411286 15.0031 136 105 68
3.52213 -0.0115227 13.3717 124 113 103
0.757484 0.0739891 13.566 121 126 120
-1.24105 0.114788 14.5117 153 157 151
0.630007 0.169078 13.6418 140 138 126
2.97154 0.308582 13.4631 180 172 167
0.0476814 0.329012 13.9817 160 165 162
-4.95445 0.573733 16.1107 94 56 24
-5.77005 0.765134 16.263 197 152 102
-5.69721 0.913944 15.9227 170 135 106
1.40168 0.894524 14.8297 169 160 155
1.40252 0.88519 14.6889 154 151 145
-5.70478 0.982546 15.9879 212 172 128
-0.597548 2.23632 14.2427 188 160 152
-0.577813 2.21351 14.1064 191 162 152
1.57916 2.21315 13.1231 98 60 41
1.7484 2.26101 13.2837 104 65 44
1.55939 2.28773 12.9363 174 133 104
1.35508 2.39838 12.9943 176 130 102
1.31492 2.42934 12.996 138 92 69
1.53406 2.4396 12.9098 194 157 142
1.40581 2.48216 12.9774 184 150 139
1.30311 2.50028 13.0505 195 156 140
2.6686 2.77636 12.5553 143 130 125
2.53177 2.79868 12.5471 92 58 40
2.31791 3.19932 12.629 92 64 60
-2.67941 -2.75364 13.0199 34 30 29
-2.73047 -2.74355 13.0362 112 95 72
-2.7974 -2.62968 13.0346 150 131 101
-2.74154 -2.66868 13.1214 62 70 80
-2.77266 -2.56486 13.0733 140 116 89
-3.01083 -2.03151 13.4213 166 134 84
-0.302219 -2.08413 14.5675 124 114 96
0.569419 -1.96342 14.2522 121 114 100
0.591213 -1.79205 14.0892 162 160 145
0.491993 -1.75041 14.0589 176 172 160
0.458978 -1.42632 13.7231 106 98 80
-0.315128 -1.41867 13.8329 180 178 168
-0.275265 -1.42392 13.8545 120 114 100
1.36464 -1.31654 13.5871 172 170 154
-0.0188602 -1.31045 13.7184 103 92 70
1.26645 -1.30235 13.5587 120 110 86
0.365822 -1.25945 13.5777 176 174 162
-0.0204798 -1.15585 13.6345 102 91 68
2.25567 -1.1141 13.3425 148 132 125
1.77146 -1.052 13.3409 152 150 136
-0.514016 -1.05328 13.7836 97 92 80
0.23522 -0.744691 13.5084 192 202 202
-0.0920032 -0.737569 13.601 152 159 158
0.300335 -0.717025 13.4911 150 156 152
1.98236 -0.719023 13.4639 188 188 178
-0.428516 -0.683716 13.7115 126 131 128
1.1302 -0.64235 13.389 146 147 136
1.83271 -0.645658 13.3629 122 122 106
1.82103 -0.611925 13.3781 182 182 171
0.948874 -0.589176 13.4459 149 154 152
3.77117 -0.583466 13.6669 91 72 68
1.54467 -0.503789 13.3767 144 143 128
1.56914 -0.412096 13.4535 190 194 186
1.28487 -0.0745345 13.505 138 136 123
3.51291 -0.00499363 13.3195 104 89 82
0.169335 0.0447175 13.7227 120 118 106
3.41449 0.0979271 13.3145 188 188 172
3.10605 0.270579 13.5041 180 172 164
-4.89729 0.306584 15.8307 160 144 108
-1.14738 0.557937 15.5067 68 36 24
-5.73244 0.719187 16.1047 85 60 50
-5.10744 0.763768 16.1099 204 152 96
1.51082 2.25882 13.1716 101 59 35
1.32185 2.5932 13.357 191 156 140
1.67354 2.90606 13.2351 141 105 90
1.96349 2.96904 12.9544 142 111 98
2.39947 3.08839 12.59 116 82 71
2.33196 3.09002 12.4162 164 143 138
2.32914 3.21272 12.6551 80 53 50
-2.53276 -2.73256 13.0862 42 39 41
-2.56166 -2.65199 13.1377 22 26 31
-2.67446 -2.60931 13.1101 32 36 45
-0.678999 -2.08551 14.8236 148 144 134
1.06147 -1.64029 13.9275 114 106 86
-0.281841 -1.43813 13.9118 109 104 91
0.185031 -1.39237 13.7013 120 114 99
-0.020717 -1.13258 13.6555 118 108 87
0.37633 -1.1205 13.505 106 95 76
1.29248 -1.11822 13.4313 197 203 195
2.23933 -1.11216 13.316 166 156 144
-0.546253 -1.01922 13.7686 186 194 191
-1.10271 -0.932849 14.1636 144 143 134
0.0140084 -0.847509 13.54 139 132 119
-0.327316 -0.829096 13.7125 115 109 94
0.288882 -0.71469 13.5104 134 136 128
1.81578 -0.639698 13.3149 114 116 100
1.25728 -0.590453 13.3208 121 113 94
-1.01752 -0.629205 14.0686 140 142 134
1.18023 -0.559832 13.3395 132 130 115
0.630923 -0.519081 13.4962 150 152 150
-5.68161 -0.518089 15.5497 134 117 115
-1.16265 -0.362543 14.1822 152 150 139
1.02077 -0.236168 13.5283 134 136 133
-0.267486 -0.192011 13.7389 135 142 142
3.51026 -0.00392023 13.338 146 133 122
0.284802 0.019659 13.7223 142 144 138
3.44955 0.0772421 13.301 176 171 153
0.32749 0.144135 13.6795 132 128 114
-5.10444 0.759359 16.1188 197 146 82
1.19594 0.86741 14.5087 74 59 56
-5.7435 0.956695 16.0536 188 151 112
-5.48528 1.05369 15.8745 212 167 124
2.38203 2.55849 13.6284 120 94 89
1.89089 2.60064 13.2272 81 54 46
1.30357 2.66268 13.2386 56 22 16
1.83721 2.80395 13.3024 146 108 92
2.01829 3.14532 13.287 136 106 97
-2.60729 -2.75835 12.9544 80 80 79
-2.68372 -2.73181 12.9484 89 78 54
-2.5552 -2.76325 13.1416 47 46 48
-2.72823 -2.66664 13.0987 64 72 84
-2.57134 -2.65678 13.1401 20 27 34
-2.67489 -2.6072 13.0941 33 36 46
-3.48013 -2.28063 13.4024 124 88 48
-0.316464 -2.1041 14.6554 131 122 106
-0.125562 -2.04487 14.4332 188 192 186
0.138927 -1.78537 14.209 170 170 162
0.0107775 -1.40085 13.7193 182 180 168
1.2549 -1.37587 13.614 178 182 176
0.531648 -1.33842 13.6347 176 176 163
-0.371033 -1.32472 13.8684 132 131 120
-0.00724488 -1.31065 13.7408 108 98 76
-0.864158 -1.30394 14.1348 135 132 120
-0.818911 -1.18499 13.9768 122 119 106
0.376504 -1.12395 13.5133 108 97 76
-1.20739 -1.12274 14.2804 180 185 182
0.0101447 -0.868036 13.5476 157 153 141
1.90046 -0.700225 13.3484 186 190 180
1.0474 -0.431998 13.4616 139 140 134
0.446213 -0.153483 13.5873 134 138 134
3.38579 0.103743 13.3424 180 184 163
-4.98621 0.668097 16.1517 180 123 60
-5.08993 0.742685 16.1132 200 148 83
1.07907 0.810869 14.4748 150 133 106
1.15046 2.47616 13.0852 118 84 72
-2.79403 -2.58936 13.0607 153 128 93
-3.47406 -2.27774 13.402 114 77 42
-0.756306 -1.86557 14.7381 150 154 149
1.2307 -1.38984 13.6235 180 180 168
-0.832368 -1.19676 14.0254 140 136 122
-0.514364 -1.06829 13.8214 132 128 118
2.43125 -0.821773 13.5184 186 189 179
0.263895 -0.67961 13.5134 158 156 147
-0.0574545 -0.572491 13.6337 138 132 118
0.425315 -0.157776 13.6137 150 152 146
0.659187 -0.15263 13.5386 148 154 150
0.752907 0.352066 13.7934 147 146 128
1.09227 0.98245 14.4971 180 160 131
1.80337 2.77741 13.258 158 108 79
-2.78157 -2.58379 13.0608 139 106 71
-0.91542 -1.42247 14.2775 170 173 164
-0.825196 -1.20052 13.9709 114 110 96
0.365283 -1.14089 13.5485 114 102 82
-1.25829 -0.861878 14.3231 189 198 198
0.283211 -0.677245 13.4873 154 150 141
-0.236557 -0.395194 13.6635 169 166 155
-4.65504 -0.104103 16.4799 178 164 131
0.164656 0.0505351 13.7249 159 156 145
-5.09248 0.585683 16.0274 204 201 180
-5.47889 1.02139 15.8821 206 161 120
-3.05627 -2.03054 13.5939 195 170 140
-0.264177 -2.63557 16.4033 119 108 90
0.254181 -1.77529 14.1784 112 102 84
1.94305 -1.567 14.2696 75 60 52
-0.101045 -1.43142 13.836 112 100 80
0.645271 -1.12049 13.552 101 95 78
1.32637 -1.11169 13.4335 200 202 191
0.0158097 -1.05787 13.5995 189 187 176
1.90448 -0.780255 13.3164 100 98 82
1.9317 -0.782127 13.3314 134 134 122
3.71124 -0.770442 14.2151 114 97 88
-1.26684 -0.741525 14.2794 135 134 122
0.926624 -0.598002 13.4336 130 136 130
2.89184 -0.468175 13.7771 137 130 110
-5.64811 -0.396428 15.0103 129 128 123
-5.72406 -0.339058 14.8618 146 138 115
1.28531 -0.0712181 13.5399 130 128 113
-2.62267 -2.81086 13.1 93 91 89
-3.00047 -2.05143 13.4122 166 140 98
-0.382236 -2.19549 14.6517 189 186 176
-0.743552 -1.87208 14.7533 124 124 116
-0.362662 -1.79158 14.4297 122 119 108
0.544833 -1.73373 14.0617 119 111 92
0.600802 -1.72509 14.087 106 93 74
0.561197 -1.68617 14.0252 160 150 129
-0.655614 -1.37452 14.0212 120 116 103
0.498805 -1.30091 13.6237 93 82 64
1.07247 -1.15539 13.5034 107 99 80
0.640069 -1.158 13.5364 188 189 176
3.76051 -0.708724 13.9548 95 78 72
1.82906 -0.610869 13.3435 180 179 166
-5.71748 -0.408666 14.9637 62 56 47
1.23817 -0.303542 13.4918 138 144 140
1.14816 -0.285283 13.4807 132 138 136
2.77243 -0.274822 13.6967 127 120 101
-2.53289 -2.66633 13.1128 34 36 38
-3.47297 -2.27867 13.4015 118 81 38
-0.0243603 -1.84878 14.3194 84 82 72
-0.285638 -1.41582 13.8117 100 96 82
-0.0216489 -1.31388 13.7299 108 96 74
1.93522 -0.707111 13.2745 185 186 171
0.98694 -0.502849 13.4665 148 152 152
2.15979 -0.400988 13.6998 116 107 88
-5.58333 -0.343833 14.9015 26 21 17
0.170989 -0.2534 13.6101 102 102 92
2.31615 -0.232091 13.6737 134 125 106
1.4407 0.884125 14.6123 175 172 165
-2.5276 -2.73845 13.0828 64 56 50
0.382293 -1.35788 13.6574 176 176 164
2.04195 -0.956442 13.3706 115 110 92
0.920614 -0.730747 13.4241 134 131 122
1.79036 -0.575387 13.3629 132 130 114
3.76345 -0.424022 13.4859 179 173 156
-5.72712 -0.453097 15.008 58 50 40
3.64728 -0.341198 13.298 101 80 68
1.02787 -0.245736 13.5357 121 122 116
-0.901802 -0.251012 14.0179 150 155 150
0.290401 0.0170909 13.7064 125 124 115
-2.49539 -2.79321 13.0922 138 105 59
-3.4683 -2.28232 13.4203 114 75 37
-0.402626 -2.16797 14.6069 183 183 174
-1.03551 -2.11193 15.4368 98 84 81
-0.331975 -1.4088 13.8041 170 168 158
-0.858747 -1.30615 14.1116 130 126 112
-1.01184 -1.26295 14.2194 113 112 99
0.630091 -1.12135 13.5741 128 122 103
-1.20908 -1.12301 14.3225 176 181 176
1.90727 -0.763353 13.2637 120 113 94
0.914278 -0.726565 13.4612 143 138 127
1.93423 -0.70614 13.3289 179 180 166
3.75211 -0.650288 13.745 176 165 146
1.00253 -0.386504 13.4352 129 134 128
-0.719959 -0.119085 13.9472 130 132 126
-5.64075 -0.0270786 14.9231 124 88 48
0.848291 1.20897 14.8831 178 140 86
-2.60406 -2.17988 13.9452 96 87 86
0.282841 -1.94842 14.2549 180 178 166
1.22978 -1.29305 13.5313 143 136 116
-1.25097 -1.34982 14.5535 121 118 108
2.21017 -1.01483 13.2618 172 172 154
1.60445 -0.485644 13.3782 179 181 166
3.73071 -0.428875 13.4358 176 173 156
-0.223526 -0.374955 13.636 149 147 134
0.156001 -0.25715 13.6233 150 150 141
-0.717404 -0.114926 14.0314 140 142 136
-2.56709 -2.77586 13.1735 42 46 48
0.531708 -1.35964 13.6693 174 173 158
-0.046283 -1.16536 13.6409 128 114 92
-1.16547 -1.06639 14.2441 134 130 116
-0.817176 -0.809248 13.881 168 167 157
-1.10746 -0.748697 14.1756 150 146 136
-1.1658 -0.672779 14.2267 144 138 120
3.74375 -0.673146 13.7796 148 137 124
-4.92276 0.547357 16.1079 24 4 2
-3.13298 -2.13616 13.4751 187 147 84
-2.60924 -2.17969 13.9184 134 129 126
-2.94609 -2.10003 13.7573 180 186 178
-0.140929 -0.644997 13.5658 136 132 120
0.408263 -0.536006 13.542 145 142 134
-2.57612 -2.19622 13.9689 138 135 130
0.599129 -2.23989 14.5213 151 138 128
1.27786 -1.92359 14.4775 102 88 78
-0.285682 -1.85427 14.4844 106 106 96
-0.888436 -1.05565 13.9982 108 108 97
3.72237 -0.670754 13.7043 120 105 94
1.66176 2.43763 12.9209 165 126 108
1.5067 2.46527 12.8813 132 97 86
-2.99411 -1.99402 13.4496 154 134 113
0.855351 -2.13696 14.6013 111 98 88
0.22226 -1.33225 13.666 112 101 86
-0.0241745 -1.31367 13.7186 99 88 66
1.9785 -0.974435 13.3045 182 184 176
2.01788 -0.953761 13.3304 108 102 80
-0.185545 -0.690708 13.6877 189 191 186
-0.751486 -0.0555973 14.0287 156 165 162
-5.32102 0.639148 16.0365 155 108 56
-2.49813 -2.70811 13.1378 180 166 142
1.99086 -0.944748 13.2381 108 104 85
-0.101102 -1.43539 13.8245 118 106 86
-0.520799 -1.13929 13.8669 108 107 96
-1.20495 -1.11735 14.3051 184 188 185
-1.16631 -0.654564 14.1067 135 130 112
-1.16356 0.50444 15.4787 159 126 85
-0.581716 2.21668 14.1333 172 144 134
3.65195 -0.270563 13.3366 178 172 156
0.49043 -1.98526 14.2206 170 171 157
2.22367 -1.11273 13.3007 162 151 138
-1.09878 -0.916457 14.0991 146 144 132
2.44379 -0.789681 13.6418 178 182 167
1.29211 2.51403 13.0354 176 134 119
0.0031924 -0.899841 13.5803 136 132 118
-1.186 -0.962262 14.3005 182 184 174
-0.180295 -3.37237 19.6138 130 119 111
-0.520418 -1.07773 13.7961 180 182 176
-1.27191 -1.07016 14.3398 174 176 168
-1.16701 0.487042 15.5764 192 154 91
-1.199 0.429111 15.5569 94 62 26
-1.19639 0.464919 15.4997 182 148 96
2.6117 3.50073 14.6215 100 70 59
-1.18355 -0.651765 14.0877 135 132 118
1.08067 2.36466 11.9449 180 145 124
-0.825959 -0.833577 13.895 108 106 96
-1.2121 0.38117 15.6546 39 20 14
-0.313215 -1.2778 13.7751 175 171 160
-1.06244 -0.60032 14.0413 117 110 93
-1.15912 -0.578469 14.0743 138 136 124
-1.22281 -0.527125 14.1555 136 140 134
-5.66449 -0.388967 15.103 36 32 22
-6.25213 -0.287822 14.9197 170 164 152
-6.25648 -0.245708 14.9502 96 94 89
-0.703013 -0.111355 13.9701 108 108 104
-6.1798 0.103211 15.1651 213 204 197
-4.87691 0.35086 15.7764 148 135 99
-4.85402 0.37868 16.1198 130 116 84
-4.92822 0.52529 16.0988 112 95 73
0.185645 -1.92242 14.2597 172 168 158
-1.22274 -0.521387 14.107 141 144 137
-1.52891 -0.41006 14.5135 151 156 150
2.50015 3.25893 12.5877 132 111 104
-0.466125 -0.294683 13.7364 142 138 129
-5.69821 0.828136 16.0259 80 46 25
-0.0164865 -1.27391 13.6954 102 90 68
-0.431032 -0.630081 13.7016 144 148 145
-5.72028 -0.380798 15.0024 36 30 22
-5.54248 1.05284 16.0184 198 150 106
-5.65374 -0.353861 15.0351 13 13 12
-6.32559 -0.215586 15.1156 68 70 64
-5.82373 -0.134398 14.8344 162 136 110
3.54677 -0.0584599 13.2921 183 176 158
-5.67848 -0.0249291 15.0002 114 78 42
-5.61582 0.814157 15.773 86 60 48
-5.74221 -0.0396044 15.0954 139 93 55
-5.95961 -0.175589 15.5268 154 133 113
-4.63505 0.191793 16.5468 40 20 18
-1.98416 -2.8537 13.3856 120 116 104
-0.27106 -1.16338 13.6352 102 96 82
-0.89365 -0.219656 14.0098 159 162 160
-1.23886 0.125779 14.5484 146 146 136
-2.5853 -2.76996 13.016 62 59 61
3.7336 -0.343995 13.4772 85 70 61
2.52946 3.27598 12.6191 135 114 106
-0.358503 -0.892138 13.8301 112 104 90
-2.50029 -2.75958 13.1315 172 148 110
-2.68689 -2.73006 12.9709 84 68 48
-2.72361 -2.72332 13.0374 127 112 99
0.580787 -2.25227 14.5486 177 166 154
1.30087 2.41184 13.0826 170 124 98
-2.56283 -2.6341 13.125 26 24 20
0.147051 -1.7974 15.7743 128 120 101
-0.000327569 -0.928192 13.617 122 114 98
-0.0865832 -2.30454 14.7139 163 152 144
-0.231742 -0.950186 9.6473 142 138 136
-5.01314 0.68384 16.1653 179 122 62
1.82657 2.55937 13.078 111 77 61
3.78075 -0.500169 13.5661 178 170 153
-0.602926 2.25375 14.3431 162 132 118
1.46429 2.19954 13.1841 55 24 14
0.587673 -1.82198 13.8866 148 146 138
-2.65607 -2.67602 13.0971 168 194 216
-0.516867 -1.05404 13.7948 97 95 89
-0.812532 -0.868957 13.9903 154 156 148
3.81372 -0.534989 13.6074 164 153 148
-5.65311 -0.425374 14.9728 75 70 66
-6.228 -0.182337 14.9617 58 58 55
-2.71583 -2.74152 13.0232 46 44 42
3.68827 -0.260391 13.3596 104 93 88
1.24939 2.46414 13.1727 126 87 68
2.24252 3.03383 12.6072 142 116 112
4.12222 -0.559201 14.1345 177 172 161
1.91155 3.00569 12.8459 148 122 118
0.0149126 1.05214 14.7881 214 182 126
-5.69407 0.946384 15.9439 194 152 114
-0.589224 2.27275 14.3057 168 142 133
-0.380376 -0.89071 13.6225 134 130 118
-2.04919 -3.09089 13.3021 172 168 156
-2.5787 -2.82135 13.0584 148 123 90
-2.59945 -2.79928 13.0687 70 64 59
-2.54466 -2.79434 13.0747 172 150 117
-2.73447 -2.67536 13.0722 87 89 90
-1.95337 -2.79125 13.5178 118 112 99
-2.78124 -2.58266 13.1001 116 84 50
-2.70611 -2.57285 13.1047 126 106 79
-2.40619 -2.20943 13.6487 182 181 166
-0.0750773 -2.30934 14.9438 134 123 96
0.596358 -2.24437 14.5459 181 164 154
-0.0680911 -2.24802 14.7966 112 99 73
-1.57386 -2.05257 14.4617 168 162 144
0.632407 -2.2417 14.6177 78 62 50
-0.0953018 -2.20238 14.7077 168 156 136
0.581047 -2.1926 14.6191 123 109 80
-0.322919 -2.13047 14.6738 126 113 96
-0.0607091 -2.09144 14.49 124 114 93
0.844909 -2.19575 14.7905 173 158 144
-0.0628662 -2.02458 14.3321 196 194 180
-0.887735 -2.14101 15.2004 102 90 89
0.881582 -2.18295 14.823 69 48 41
-0.269062 -2.03496 14.6007 174 168 156
1.07121 -2.04746 14.4358 168 150 136
-0.0797532 -1.94532 14.3803 186 186 178
0.57213 -1.96266 14.2554 111 101 81
0.999672 -2.01676 14.4631 135 124 100
-0.00958531 -1.90186 14.3519 136 136 128
0.21049 -1.88882 14.2663 119 110 92
-1.51431 -1.7654 14.3634 127 126 115
-0.422748 -1.84003 14.5008 139 140 133
1.26608 -1.9817 14.6076 88 68 58
-1.46321 -1.78638 14.707 159 157 144
0.644077 -1.81092 14.1297 105 96 76
0.571067 -1.75829 14.0795 172 166 144
1.04925 -1.80952 14.2285 113 99 78
0.549021 -1.72572 14.0137 112 103 82
1.07262 -1.76672 14.0991 121 110 88
0.62767 -1.68932 14.0597 154 142 120
-0.00817076 -1.54079 13.966 104 91 70
0.352271 -1.60151 14.1657 96 82 56
0.0579404 -1.49599 13.8833 192 184 168
0.629762 -1.56619 14.1922 94 82 56
0.477982 -1.48014 13.8098 97 84 58
-0.167145 -1.4491 13.9447 118 108 87
-0.0377833 -1.44084 13.8428 170 163 146
1.21114 -1.51619 13.8493 114 102 77
0.790707 -1.42439 13.7021 189 180 163
0.244827 -1.35626 13.67 182 176 158
0.502836 -1.38159 13.6887 176 170 150
0.995459 -1.38476 13.5151 134 130 114
1.92072 -1.54049 14.139 90 72 63
-0.705734 -1.27733 13.8613 198 198 189
0.458905 -1.31823 13.6468 97 88 67
0.483341 -1.32499 13.6329 182 176 157
0.631524 -1.32804 13.5778 155 152 140
0.981623 -1.3458 13.5638 150 148 138
-1.28231 -1.3272 14.6134 114 112 100
0.34508 -1.2964 13.6414 158 149 128
0.390192 -1.29372 13.6275 104 93 68
0.510798 -1.29322 13.6429 92 78 58
-0.792864 -1.24531 14.0277 188 186 173
2.04817 -1.45326 14.1033 158 140 132
-1.18695 -1.30846 14.7361 162 162 154
-0.0202733 -1.23486 13.6779 114 99 73
0.628961 -1.25993 13.5408 142 133 115
1.33199 -1.31546 13.5887 188 180 158
0.0127633 -1.21698 13.6703 179 170 148
0.968154 -1.26427 13.5362 162 160 148
1.2204 -1.28532 13.6077 110 98 74
-1.21246 -1.22189 14.4232 141 141 132
0.434597 -1.22463 13.5882 188 181 164
0.606644 -1.22688 13.5051 180 174 152
2.01937 -1.39963 14.0262 132 122 98
-0.103305 -1.18066 13.5972 121 111 90
0.783957 -1.22643 13.5487 188 180 158
0.920067 -1.23029 13.5332 150 150 138
1.1914 -1.24365 13.5321 182 176 160
1.2576 -1.24941 13.5286 192 180 157
1.31858 -1.24698 13.4732 171 158 134
-0.545843 -1.18196 14.0696 161 160 148
0.983051 -1.2121 13.51 194 193 179
0.610242 -1.15439 13.485 116 106 86
1.07251 -1.18666 13.4983 196 194 182
1.37165 -1.19794 13.4015 120 110 87
-1.01953 -1.10408 14.0968 193 193 184
0.960449 -1.15445 13.4925 82 70 52
-1.19782 -1.09695 14.2212 200 201 194
-0.520179 -1.07824 13.7421 174 172 159
0.60596 -1.12811 13.528 190 184 163
1.30549 -1.15542 13.3856 200 194 174
0.569211 -1.10969 13.4795 128 117 100
1.49087 -1.16299 13.4195 122 112 90
-0.889708 -1.06547 14.008 121 115 103
0.522878 -1.09785 13.5257 146 144 130
0.766271 -1.11656 13.5893 137 128 110
0.578683 -1.08287 13.5018 199 194 176
2.01693 -1.15408 13.3404 136 128 106
1.53087 -1.10926 13.381 135 128 108
1.58964 -1.10526 13.3782 148 141 120
0.85762 -1.06367 13.5893 190 182 162
0.533801 -1.01361 13.4937 122 118 100
0.743852 -1.02237 13.4904 145 144 130
1.55112 -1.07023 13.3771 156 152 133
-1.10673 -0.962284 14.1008 194 192 180
0.170829 -0.97585 13.4997 144 142 131
1.50843 -1.04679 13.3933 146 144 128
-1.26871 -0.93953 14.2756 156 156 148
1.89976 -1.05421 13.3378 146 141 124
0.898982 -0.991859 13.4302 162 157 142
-0.842806 -0.903927 13.8597 185 182 167
1.32643 -1.00598 13.4138 176 168 148
-0.389344 -0.900175 13.6857 162 150 132
-0.397918 -0.879686 13.691 132 124 108
0.943513 -0.942733 13.4663 144 142 126
0.0386632 -0.881419 13.5851 140 134 120
0.965597 -0.927769 13.4499 125 120 102
1.06396 -0.931823 13.3787 158 156 143
2.4939 -1.01567 13.682 140 122 113
0.5061 -0.841056 13.4865 116 118 112
1.11003 -0.878078 13.4306 154 154 141
-0.780444 -0.776787 13.8391 125 122 112
-0.0199895 -0.799515 13.5694 200 198 190
1.3218 -0.880128 13.3838 136 134 122
2.14844 -0.917441 13.3356 186 182 168
0.726732 -0.835085 13.5233 198 194 182
1.71881 -0.88931 13.3246 145 138 119
1.52405 -0.871057 13.3784 148 148 134
0.488995 -0.808983 13.5039 174 172 164
1.27186 -0.846941 13.3931 152 152 137
-1.2926 -0.737451 14.2425 188 182 174
1.13605 -0.819293 13.3961 140 134 116
1.74419 -0.849262 13.3142 158 154 138
-0.537544 -0.718125 13.6829 141 138 124
-0.192789 -0.740529 13.6326 124 122 114
2.11824 -0.86868 13.4481 140 139 124
-0.883966 -0.694578 13.8993 162 164 156
0.459124 -0.744633 13.4421 196 200 192
-0.12568 -0.689529 13.5792 194 200 196
2.49643 -0.857362 13.5845 192 184 165
-1.14903 -0.63532 14.0428 123 114 96
0.424017 -0.677499 13.5098 134 136 127
2.33491 -0.810371 13.5159 156 155 140
0.0185452 -0.648187 13.5858 156 160 156
0.49887 -0.66991 13.4982 138 138 129
-1.05532 -0.586329 13.9924 128 121 106
0.0576047 -0.608539 13.5602 164 168 164
1.48796 -0.6776 13.3371 150 148 135
1.70204 -0.692326 13.2959 138 135 120
-1.2097 -0.526039 14.0807 152 154 144
1.76752 -0.66169 13.3228 136 136 120
-1.15161 -0.510257 14.0782 162 162 156
1.55437 -0.650334 13.3471 201 198 181
3.0258 -0.834981 14.486 100 84 76
1.67845 -0.615073 13.316 160 158 146
-0.800311 -0.431923 13.9163 153 156 150
3.65101 -0.748481 14.0243 104 86 77
1.91321 -0.605599 13.8252 99 92 78
1.27143 -0.526043 13.4086 134 130 114
1.96497 -0.593834 13.7127 105 95 75
0.984595 -0.493377 13.4247 150 150 148
-1.17816 -0.378294 14.1856 154 151 139
2.03223 -0.568516 13.8059 122 117 100
1.29822 -0.490995 13.3882 154 153 141
1.69309 -0.508408 13.3241 122 118 98
1.53312 -0.484327 13.3559 140 138 122
3.78917 -0.668767 13.825 158 142 131
0.72953 -0.42052 13.4577 188 184 172
0.44854 -0.387237 13.5227 154 159 156
1.07797 -0.416777 13.4084 134 132 122
0.0859801 -0.332786 13.566 143 140 130
2.97842 -0.549487 13.889 130 116 94
1.38439 -0.403489 13.4264 141 137 122
0.801148 -0.357472 13.461 122 120 112
1.51326 -0.410676 13.4519 189 186 174
1.91544 -0.451601 13.7499 123 114 96
2.1711 -0.46598 13.7535 178 171 154
-0.89601 -0.251897 13.9984 150 152 145
-0.192277 -0.28631 13.6347 161 164 160
0.136818 -0.306127 13.5916 189 184 172
0.242582 -0.308002 13.5964 152 160 159
1.30326 -0.374087 13.4748 128 124 114
1.68791 -0.405084 13.5143 122 116 96
1.58297 -0.386427 13.4476 123 118 104
0.188131 -0.286389 13.6027 113 110 101
0.444515 -0.303114 13.5629 145 146 140
1.42981 -0.359961 13.4645 145 144 132
3.78133 -0.535591 13.5735 158 144 133
2.02951 -0.403838 13.7246 126 116 95
0.200197 -0.255477 13.6215 182 178 170
1.34952 -0.334187 13.4654 142 143 138
-0.126626 -0.223107 13.6474 155 160 158
1.31217 -0.317206 13.5333 123 122 112
2.18576 -0.385862 13.7126 124 112 92
0.761454 -0.264627 13.4608 143 144 140
1.08864 -0.290524 13.5387 160 164 162
1.2351 -0.299011 13.4583 139 141 136
1.42639 -0.315384 13.4873 146 148 144
1.57986 -0.331153 13.5444 106 100 83
0.227253 -0.227273 13.6044 130 130 124
0.859148 -0.267201 13.4676 110 106 100
2.37892 -0.367821 13.7062 138 130 111
0.417529 -0.216863 13.5855 144 145 139
1.26913 -0.273797 13.4669 130 132 124
1.75149 -0.31342 13.7305 116 106 87
0.1626 -0.185065 13.6099 144 148 143
1.3843 -0.266284 13.6149 126 124 113
-4.61361 0.0941009 16.5183 58 38 34
3.76582 -0.400693 13.4856 164 148 139
0.369122 -0.148222 13.5805 138 140 134
1.16175 -0.197151 13.5069 129 128 121
1.46338 -0.223348 13.5201 134 133 124
0.457848 -0.143448 13.6223 133 132 124
0.605126 -0.151574 13.5276 134 136 130
1.21756 -0.19039 13.4731 144 143 134
1.28287 -0.191656 13.5009 150 150 145
1.65515 -0.230373 13.8203 134 129 113
2.27095 -0.271582 13.7243 128 119 98
3.65417 -0.350407 13.4212 122 103 76
3.72514 -0.362654 13.4997 144 124 107
1.62835 -0.204768 13.6874 188 187 174
-1.04288 -0.0167361 14.2791 162 164 156
0.570696 -0.117734 13.5667 161 169 170
1.21623 -0.168583 13.5088 196 196 190
2.06449 -0.226994 13.6662 125 113 92
2.25715 -0.236405 13.6585 189 180 159
2.42401 -0.254207 13.6586 140 130 110
2.77196 -0.275369 13.6443 123 112 91
0.714685 -0.108707 13.5075 158 160 159
1.93453 -0.179209 13.6641 122 114 94
1.84383 -0.140135 13.6631 116 104 84
1.39209 -0.101455 13.543 194 194 180
1.58212 -0.114376 13.6828 131 123 102
2.67439 -0.18691 13.6689 133 122 100
2.99395 -0.209327 13.5628 182 170 145
0.935696 -0.0573028 13.4981 150 156 156
1.0368 -0.0583236 13.5719 144 142 136
2.05939 -0.126988 13.6691 128 118 97
1.16828 -0.0470156 13.5373 149 154 152
3.68384 -0.22531 13.3645 176 162 149
1.06121 -0.0229214 13.5709 160 162 159
2.59703 -0.1363 13.6139 188 180 160
2.58992 -0.104862 13.6416 142 132 112
3.64427 -0.163901 13.3371 128 116 105
0.698844 0.0709867 13.6226 188 186 179
0.694815 0.0910278 13.5711 147 149 142
0.934912 0.0793703 13.6001 140 142 138
2.17156 -0.013412 13.6288 154 148 128
0.978199 0.0787701 13.5665 145 150 150
2.48404 -0.0231967 13.6123 146 136 116
1.17732 0.0774819 13.6829 152 156 154
2.79002 -0.00546602 13.4959 144 134 114
0.399414 0.207989 13.6797 148 144 134
2.51424 0.0594348 13.6273 146 138 118
0.990537 0.23181 13.6804 148 144 130
3.03816 0.10915 13.4169 155 146 123
3.47893 0.0702947 13.3127 164 146 136
0.292067 0.345909 13.8745 154 156 149
0.29644 0.365852 13.8546 202 203 195
0.648976 0.363493 13.7077 164 162 146
-1.12961 0.577866 15.5764 86 44 16
2.55462 0.266151 13.7044 146 141 124
0.367968 0.550066 14.0541 158 154 138
2.659 0.544154 14.7287 142 134 127
2.01122 0.725977 14.344 154 151 137
-0.126845 1.03921 14.8134 130 94 50
-0.0993495 1.0653 14.9471 120 84 44
-0.605806 2.23165 14.1991 187 158 148
1.54601 2.03485 13.4166 52 24 16
1.51052 2.01938 13.287 138 109 100
1.59627 2.12285 13.1472 148 102 82
1.64811 2.15044 13.2801 140 104 90
1.42262 2.25415 13.2828 73 33 16
1.656 2.20792 13.1298 170 130 102
1.70295 2.21911 13.1176 96 54 32
1.25914 2.39037 13.0672 160 114 88
1.74549 2.35641 12.9227 164 118 95
1.63088 2.42752 12.9131 188 146 131
1.29982 2.48842 13.0259 195 150 129
2.27027 2.51894 12.6335 162 121 94
2.18285 2.60788 12.4772 158 125 106
2.63379 2.78836 12.5747 44 24 18
2.52848 2.78182 12.4527 132 94 73
2.47544 2.77234 12.2725 140 104 80
2.5915 2.91129 12.5643 48 20 10
2.34239 2.8836 12.3514 158 118 92
2.25094 2.91759 12.3663 182 146 132
2.32132 2.91215 12.3205 114 67 46
2.39834 2.99413 12.3478 107 66 47
-2.75227 -2.728 13.0734 172 159 144
-2.53198 -2.72873 13.0846 49 42 38
-2.51679 -2.74094 13.1493 120 106 85
-2.23553 -2.68318 13.2159 140 138 124
-2.78592 -2.58691 13.1077 116 84 50
-2.55571 -2.15913 13.779 142 136 129
-2.52615 -2.14631 13.7655 114 103 100
-2.99371 -2.08848 13.8175 188 184 184
-0.0869509 -2.3344 14.8253 134 117 112
-0.0253646 -2.30323 14.7213 90 74 66
-0.444033 -2.16812 14.4958 132 120 114
-0.453734 -2.32095 15.1536 96 82 79
0.598225 -2.24095 14.4901 120 102 96
-0.0771493 -2.26847 14.8562 120 106 80
0.628166 -2.24342 14.6341 78 62 50
0.238198 -2.16205 14.499 144 134 112
-0.681229 -2.22364 15.1246 150 137 134
0.574896 -2.17677 14.5401 128 115 84
-0.0724648 -2.12541 14.6068 124 113 92
0.845234 -2.21685 14.8523 123 104 94
0.259369 -2.02973 14.3992 118 108 88
0.225219 -1.97933 14.3591 126 117 98
0.570345 -1.96344 14.2505 111 101 81
1.13198 -2.09526 14.771 66 47 37
1.1738 -2.05861 14.6443 100 80 72
-0.723976 -1.91255 14.7483 148 150 144
1.26927 -2.02027 14.7718 82 60 50
0.00800336 -1.80986 14.3013 165 160 146
1.12376 -1.84915 14.362 126 112 90
0.618983 -1.75819 14.1422 119 109 86
-0.356934 -1.71964 14.4485 146 136 117
0.634299 -1.69965 14.1039 158 146 124
1.08185 -1.69925 14.0844 118 105 82
0.334615 -1.64291 14.0742 111 97 74
-0.866223 -1.61029 14.7708 108 102 85
0.419559 -1.50257 13.7481 160 148 125
0.463189 -1.48939 13.6833 108 95 68
0.632074 -1.54992 14.0267 99 86 60
-0.648536 -1.38094 14.0073 122 115 98
0.554284 -1.40029 13.6639 186 180 162
-0.772712 -1.40657 14.3859 189 187 176
-0.89954 -1.34462 14.1953 178 176 166
0.968335 -1.35275 13.5625 141 140 126
0.379882 -1.25504 13.5556 170 164 147
0.719615 -1.28268 13.5922 150 148 136
0.960882 -1.26634 13.5263 166 164 152
1.26133 -1.24422 13.5137 184 171 148
1.01341 -1.19242 13.4793 105 90 66
0.612633 -1.16089 13.5514 109 100 80
0.59961 -1.13767 13.5849 192 182 162
-1.17119 -1.09376 14.2977 125 122 111
-0.329821 -1.07652 13.6768 126 126 115
-1.26641 -1.07874 14.3214 184 181 170
1.50185 -1.1595 13.468 130 121 98
1.79977 -1.17815 13.4415 140 133 115
2.19787 -1.27319 13.9926 114 98 86
-0.351043 -1.05083 13.698 192 194 184
0.762449 -1.11051 13.5343 142 134 116
1.42024 -1.13031 13.4505 150 149 132
1.53789 -1.10726 13.4299 142 134 114
0.5372 -1.00956 13.5099 123 116 98
1.42891 -1.00899 13.4148 182 179 156
0.00960883 -0.917404 13.5755 110 100 83
1.55617 -0.98053 13.3767 188 182 166
-0.379614 -0.873916 13.7657 124 113 96
1.05856 -0.937208 13.3943 170 170 154
1.19691 -0.907055 13.4288 144 136 117
2.48809 -1.02613 13.6628 151 134 124
2.19534 -0.946985 13.2955 139 132 111
0.525672 -0.83738 13.4742 194 198 194
-1.11374 -0.788251 14.2345 144 142 132
1.54274 -0.882512 13.3421 157 154 140
0.348559 -0.80379 13.4755 142 142 136
0.727861 -0.821291 13.4568 202 198 188
1.211 -0.843301 13.3749 140 136 119
1.74186 -0.847316 13.3027 158 154 138
0.431454 -0.736947 13.4523 132 132 122
0.881784 -0.762505 13.4454 186 184 173
1.32193 -0.786806 13.3869 144 138 123
-0.819601 -0.667669 13.9152 148 152 144
-0.306186 -0.679356 13.6707 150 151 144
2.0235 -0.806659 13.5501 183 186 176
0.246308 -0.67309 13.4963 136 128 115
2.28741 -0.815107 13.534 146 144 128
0.0182641 -0.647035 13.5859 156 160 156
0.579123 -0.678893 13.4765 168 164 155
1.3093 -0.706576 13.3628 128 124 107
-1.16371 -0.576493 14.083 147 142 130
0.679601 -0.651734 13.4577 148 144 136
0.48609 -0.63395 13.5251 153 154 150
2.67973 2.84687 12.6589 172 149 136
-1.08739 0.805484 15.3425 202 161 110
-5.58176 -0.0912524 15.4229 192 184 163
-5.27158 0.890991 16.0279 162 110 67
-5.12096 0.121276 15.4721 155 144 114
-0.70723 -0.119498 13.9761 114 112 104
-2.73134 -2.60319 13.1194 156 144 121
-5.66822 -0.334733 15.0575 21 14 6
-4.91181 0.460477 16.375 171 166 150
-5.58787 1.033 15.9588 122 78 46
-4.89787 0.473333 16.3028 168 162 145
-2.81865 -2.64617 13.0677 142 122 94
-5.05878 0.584906 16.0003 196 185 158
-4.95122 0.568132 16.0777 116 72 36
1.69428 2.8574 13.1911 168 137 124
1.64504 2.93914 13.1927 154 126 119
2.51993 3.06915 12.2838 142 110 94
1.62712 2.88807 13.1974 178 128 102
2.40089 3.1104 12.7136 151 117 106
2.43125 3.26299 12.794 140 110 103
-4.60153 -0.110577 16.4526 158 140 122
-4.98201 0.33843 16.6421 175 168 148
-0.703717 -0.113511 13.9504 136 131 121
2.52379 2.58975 12.6774 128 93 74
-5.00225 0.669657 16.1868 160 98 44
0.350923 0.177065 13.6884 132 121 101
2.71391 2.80679 13.6492 96 70 64
1.20425 2.51318 13.3481 153 116 105
-0.594722 2.25607 14.313 170 142 134
-2.73478 -2.68065 13.0331 66 71 74
-1.41325 -0.158481 23.4715 136 140 134
-2.67871 -2.68225 13.076 73 92 108
-0.251449 0.783549 14.8324 158 108 37
-0.61462 2.22929 14.229 172 146 137
0.223674 -1.33303 13.6662 102 87 65
0.439439 -1.27032 13.6082 158 148 124
0.63953 -1.23396 13.5568 125 112 92
0.99448 -1.27543 13.568 197 194 182
1.87943 -1.23129 12.9761 172 160 135
1.25262 -1.19956 13.5038 143 137 114
-0.0465876 -1.02666 13.5745 188 186 174
0.477512 -1.07381 13.5158 131 124 106
-0.034462 -0.991534 13.5966 124 119 102
1.3591 -1.11596 13.4177 136 130 112
1.70838 -1.13197 13.4202 141 133 113
1.66926 -1.07636 13.3795 144 142 120
1.0205 -0.973294 13.3966 140 132 112
-0.807541 -0.800907 13.861 166 163 150
-1.55361 -0.752583 14.4806 196 198 192
0.470725 -0.867991 13.5002 195 198 194
0.437273 -0.820402 13.395 102 98 86
0.979816 -0.884805 13.4039 145 140 124
1.82229 -0.924977 13.3079 140 134 116
0.48941 -0.77448 13.4307 87 82 72
1.36531 -0.824548 13.351 151 142 124
-0.114719 -0.663163 13.635 172 171 158
-0.601582 -0.569111 13.7668 158 160 154
2.4168 -0.861303 13.5255 152 149 130
0.728562 -0.593732 13.4285 132 127 114
0.405004 -0.505248 13.5085 170 163 150
2.26724 -0.746835 13.9409 151 140 122
1.14743 -0.551416 13.3859 154 152 138
0.0320194 -0.434695 13.6174 164 160 148
0.848521 -0.501852 13.4637 148 148 143
1.83395 -0.607516 13.3207 186 182 166
1.22485 -0.525294 13.3984 152 148 132
1.12309 -0.499259 13.3792 156 158 148
1.45433 -0.521625 13.3929 129 122 102
-0.461497 -0.289146 13.7272 144 141 125
1.49608 -0.472884 13.3775 160 160 145
2.05411 -0.535426 13.7721 182 176 157
0.105138 -0.277128 13.577 152 152 140
1.64004 -0.416128 13.3734 144 138 120
-0.278796 -0.213866 13.7765 114 115 107
0.340821 -0.274693 13.5997 137 139 130
0.690987 -0.30904 13.5334 140 144 140
1.26071 -0.380529 13.439 186 186 174
0.149267 -0.230431 13.5918 194 194 184
0.459353 -0.254095 13.5483 127 128 116
2.24763 -0.439309 13.7037 189 181 162
-0.0463659 -0.158955 13.6941 162 167 162
1.55017 -0.339826 13.4955 186 182 164
0.381921 -0.198485 13.6092 128 126 118
2.35777 -0.39718 13.7094 120 107 86
0.208685 -0.124357 13.636 138 140 134
1.14912 -0.21218 13.5166 138 135 126
1.11155 -0.176209 13.4843 153 154 146
1.77787 -0.260647 13.6937 196 190 171
1.80977 -0.261634 13.6755 121 111 92
0.537437 -0.0989165 13.6007 158 164 164
1.71276 -0.232675 13.662 182 174 156
-0.595664 0.0676785 14.0145 129 126 114
2.82758 -0.313671 13.718 182 171 149
1.73604 -0.177473 13.67 187 178 158
1.04121 -0.0784932 13.558 138 136 130
0.574385 -0.0191473 13.6235 157 158 153
1.72744 -0.149851 13.6839 190 184 164
2.17543 -0.197106 13.6229 192 185 168
2.00497 -0.165077 13.6537 122 112 91
1.62805 -0.111091 13.6971 182 176 154
1.0883 -0.0243677 13.7284 114 114 108
0.564034 0.0474394 13.6167 164 165 160
2.85835 -0.205332 13.6045 178 164 140
0.896655 0.0402287 13.582 138 140 132
2.01479 -0.0921082 13.6364 132 122 102
0.802535 0.0551269 13.6058 136 135 128
0.914939 0.0555891 13.5544 135 136 128
1.54975 0.00275793 13.6967 154 148 131
2.19448 -0.0476036 13.6507 146 139 116
2.87836 -0.0913044 13.5066 192 183 164
0.733003 0.192362 13.6551 150 144 127
2.53217 -0.00335647 13.6133 162 153 130
1.4035 0.166678 13.7473 162 160 145
0.943743 0.279118 13.7578 152 151 136
2.75585 0.0575641 13.5316 154 145 124
2.87429 0.29422 13.5306 162 159 148
3.08786 0.26977 13.4485 145 132 125
2.60059 0.393265 14.2135 130 126 116
0.812302 0.646186 14.1688 156 149 130
0.993724 0.889145 14.3439 186 174 152
1.63261 2.1692 13.2078 79 40 22
1.65422 2.1856 13.2079 80 44 26
1.53833 2.22725 13.1211 154 113 85
1.71928 2.22433 13.1043 86 44 22
1.28515 2.51104 13.1405 152 104 80
1.79116 2.39338 12.9716 127 84 66
1.64684 2.41181 12.8876 115 66 47
1.89356 2.48862 13.262 107 69 54
1.45101 2.47735 12.9152 192 149 136
1.51387 2.4752 12.9196 133 94 82
1.36034 2.57322 13.1494 179 136 114
1.66164 2.91597 13.1842 80 45 34
1.64721 2.94057 13.1934 132 104 101
2.46199 2.75205 12.4985 75 37 16
2.46607 2.77784 12.4795 140 102 81
2.38997 2.80554 12.4284 93 50 33
2.31566 2.80387 12.3639 104 61 38
2.30652 2.86039 12.3742 114 69 48
2.28456 2.89254 12.3893 172 132 112
2.51354 2.91442 12.4508 125 90 70
2.33376 2.96579 12.3507 162 120 100
2.4134 2.96813 12.3745 142 103 80
2.47412 3.04275 12.4507 130 91 73
2.41316 3.18678 12.7744 130 97 84
0.252357 -1.90475 14.2414 166 159 144
0.642281 -1.88085 14.1667 106 96 74
1.04868 -1.79356 14.1694 100 90 64
0.566813 -1.36445 13.645 137 134 114
0.399558 -1.28605 13.5826 104 90 64
-0.102677 -1.23755 13.6786 128 119 98
1.56551 -1.19967 13.3187 138 130 110
0.148028 -1.04453 13.5551 156 156 144
1.09023 -1.15193 13.5298 114 102 79
1.20324 -1.12287 13.4918 138 131 111
0.0205782 -0.96919 13.5698 176 171 154
0.16829 -0.987915 13.5629 140 138 126
0.583259 -0.933624 13.469 127 120 104
-0.336395 -0.838045 13.6505 91 78 57
-1.5645 -0.762056 14.5146 195 197 191
0.139677 -0.7266 13.5085 153 154 146
1.2715 -0.848449 13.3911 150 147 128
-0.186252 -0.686542 13.6299 190 188 176
-1.08032 -0.606996 14.0819 126 118 100
1.36752 -0.824033 13.3706 154 148 130
-1.36967 -0.510822 14.3573 137 138 126
1.39823 -0.758276 13.3674 138 130 112
1.57607 -0.760622 13.3559 131 124 104
0.314442 -0.579521 13.4706 192 192 183
1.68708 -0.709694 13.2822 136 134 114
1.58439 -0.642768 13.314 138 136 118
1.44209 -0.539462 13.3735 124 114 96
1.30219 -0.492231 13.3833 150 146 130
1.11391 -0.179541 13.4966 153 154 146
1.80586 -0.270762 13.7044 123 112 92
1.24044 -0.165586 13.4825 156 155 148
-0.576669 0.0892924 14.027 134 131 120
1.37859 -0.108213 13.6495 190 187 171
1.81197 -0.157662 13.6772 110 99 76
2.16234 -0.203916 13.6311 192 185 166
0.361343 0.0269951 13.6956 149 146 134
0.604233 0.0240199 13.6145 124 124 114
1.39984 -0.0471058 13.6614 132 126 106
0.94395 0.0239516 13.5942 153 156 154
0.881669 0.0387901 13.5803 142 144 140
2.01392 -0.0960641 13.6621 134 124 104
0.852915 0.103907 13.5923 138 138 132
0.722285 0.184657 13.6715 148 142 124
2.63403 -0.0393141 13.5798 148 138 116
-0.45107 0.522111 14.3988 162 172 172
2.50862 2.67342 12.9709 142 102 78
1.6253 2.88297 13.1684 166 120 96
2.63968 2.75575 12.5817 46 22 16
2.28008 2.88313 12.3846 165 124 104
2.32081 2.91401 12.3334 100 53 30
1.16777 -1.68883 13.3188 132 122 99
1.21142 -1.5189 13.8798 109 96 70
0.642066 -1.18868 13.5172 190 190 171
-0.706716 -0.992296 13.8652 140 140 133
0.662028 -1.06209 13.5958 174 172 154
1.89957 -1.05139 13.3279 138 134 116
0.673176 -0.881469 13.4477 119 108 88
0.541416 -0.843289 13.5094 190 194 186
0.50559 -0.82136 13.4631 118 114 105
-0.0850979 -0.73085 13.5876 146 144 135
1.27672 -0.809645 13.373 188 186 166
0.375905 -0.642923 13.5132 118 110 92
1.28032 -0.737352 13.3936 117 108 86
-0.0229962 -0.538117 13.5865 129 120 102
1.03196 -0.581599 13.3908 126 118 104
0.844236 -0.506523 13.4734 162 165 161
1.56598 -0.583464 13.3575 138 128 101
1.61171 -0.394003 13.5077 114 108 90
0.94177 -0.226096 13.5046 140 134 122
-4.89808 0.45957 16.3869 132 124 110
-0.193547 -0.0217613 13.8589 145 148 140
-4.92813 0.541448 16.0913 96 66 43
-0.581374 0.0800292 14.0446 136 133 122
1.93505 -0.183541 13.6645 116 108 87
0.175729 0.036985 13.73 128 118 100
-0.106881 0.117268 13.8629 131 137 134
2.64008 -0.0392477 13.5826 146 136 114
-0.0943762 0.328679 13.9779 156 162 156
2.5139 0.0532993 13.6319 154 145 124
3.54169 -0.0432587 13.3148 178 164 154
0.814544 0.563384 14.0758 143 137 118
1.60585 2.18379 13.2141 152 108 82
2.30972 2.72727 12.4264 102 58 33
2.56534 2.95377 12.5524 58 26 15
0.0863819 -1.71559 13.7241 169 170 161
-0.282826 -1.85089 14.4611 111 107 94
0.158717 -1.66827 13.6964 168 165 153
1.11858 -1.76257 13.9626 125 112 89
1.10337 -1.40152 13.6129 134 126 103
0.0225773 -1.0666 13.6135 185 182 170
0.688812 -1.03158 13.579 184 180 161
0.733137 -0.85192 13.4864 120 110 94
1.57332 -0.943151 13.3671 138 130 105
1.01364 -0.388538 13.447 136 136 128
1.6368 -0.455215 13.4391 118 112 94
1.47976 -0.408631 13.4666 150 146 132
1.58064 -0.333659 13.5421 122 116 96
1.35773 -0.193107 13.4783 137 134 124
1.75056 -0.211585 13.6718 113 102 80
2.13777 -0.234871 13.7217 184 175 157
1.09789 -0.0197845 13.5758 127 126 122
0.451178 0.140894 13.6283 128 117 96
0.346199 0.160738 13.6847 126 117 98
1.08598 0.128555 13.7002 132 134 127
0.583965 0.22753 13.6951 162 158 144
1.09813 0.979228 14.6543 170 143 96
1.64665 2.93599 13.1915 137 105 97
0.339962 -1.25974 13.6457 179 178 162
-0.446148 -1.08279 13.7518 184 190 182
-1.2879 -1.0268 14.3051 134 128 110
0.339765 -1.06555 13.501 192 192 179
0.664751 -0.886263 13.4455 132 124 102
0.729671 -0.850772 13.4695 120 110 93
-0.443199 -0.688292 13.7274 132 130 118
1.19263 -0.635447 13.3701 184 185 170
1.15572 -0.600026 13.3404 126 116 94
0.336392 -0.354849 13.5525 162 164 158
0.450073 -0.285064 13.5653 146 144 134
-0.588292 0.0740819 14.0426 128 124 112
0.170495 0.0470264 13.7347 140 132 112
1.03265 -0.0697894 13.5129 148 146 137
1.0798 0.133345 13.6859 142 144 138
3.39418 0.101352 13.3348 182 178 158
2.97425 0.305272 13.5355 184 178 170
0.394153 -1.28278 13.523 103 88 62
0.757982 -1.25548 13.5341 152 141 120
0.607974 -1.0233 13.5492 112 98 78
0.440819 -0.890696 13.4684 188 192 186
1.15254 -0.957263 13.3893 133 119 94
0.623043 -0.805175 13.4468 190 198 196
-0.428154 -0.681288 13.6775 136 134 123
1.396 -0.706999 13.3488 106 96 72
-0.27008 -0.200623 13.7587 125 126 118
2.15099 -0.407236 13.774 132 120 98
1.30142 -0.0613334 13.5277 133 128 106
1.55747 2.75573 13.259 199 164 150
0.298427 -1.22632 13.5459 193 190 174
0.600144 -1.03295 13.4986 119 107 86
0.419184 -0.457332 13.4848 140 136 124
1.00033 -0.232919 13.4826 150 148 133
1.08266 0.99417 14.5949 168 145 100
1.30285 2.69558 13.2274 62 30 24
1.56303 2.74872 13.2565 198 166 152
-0.613339 -1.76827 14.5093 126 120 106
0.525726 -0.610099 13.5336 185 188 184
-4.69015 0.178311 16.2647 178 164 132
-4.83218 0.410179 16.2289 175 168 147
1.11866 -1.75679 13.9199 126 116 94
0.968393 -1.19075 13.5643 154 146 124
2.06655 -0.941955 13.334 131 122 98
2.50095 -0.993605 13.5965 142 126 115
3.74461 -0.406755 13.491 172 159 145
0.60579 -0.853752 13.4786 190 190 180
0.046944 -0.754046 13.5768 146 147 139
0.137629 -0.612902 13.5693 178 176 166
1.62468 -0.766475 13.3707 162 155 136
0.498336 -0.63243 13.5268 144 142 134
1.34064 -0.590851 13.3713 125 118 98
-0.513663 -0.350353 13.7635 138 132 116
0.735355 -0.455787 13.4824 138 133 122
1.66594 -0.585767 13.367 137 134 112
0.473349 -0.134849 13.5799 134 134 124
-4.98703 0.570187 16.1335 124 78 40
1.10499 -0.00507124 13.5603 132 135 134
0.959024 0.146285 13.6348 142 138 120
1.92883 3.07415 13.0285 112 85 78
-2.64492 -2.59439 13.1159 61 51 32
1.14114 -1.27026 13.5694 176 166 148
0.169097 -0.779733 13.5466 116 115 106
-0.136142 -0.599192 13.6017 184 178 162
0.343187 -0.348714 13.5747 137 138 133
1.11616 -0.32982 13.4729 132 134 129
1.26896 -0.273911 13.4606 155 153 146
0.682754 -0.116841 13.5219 130 130 124
0.715906 0.323306 13.7344 160 155 134
2.64552 0.343039 13.7401 100 92 87
-0.0858067 -0.837184 13.5456 136 131 114
0.475019 -0.898993 13.5555 188 190 185
0.245402 -0.709011 13.5221 132 127 116
0.727532 -0.589705 13.4212 132 128 116
0.789791 0.0999775 13.5784 194 198 197
0.356677 0.164301 13.6774 134 126 108
1.17428 0.0718557 13.5852 146 148 144
0.720885 0.332834 13.7406 137 131 109
2.64687 0.341299 13.7251 122 114 108
1.32572 2.70284 13.3535 51 22 16
1.64823 2.94108 13.2154 126 98 90
1.64221 -0.487137 13.3673 188 186 170
0.0331182 0.322091 13.9016 162 163 158
-2.06125 -3.10652 13.3493 159 148 132
0.63216 -0.811157 13.4624 192 198 198
0.749425 0.0697036 13.5889 134 126 114
1.30132 2.68868 13.2869 40 16 10
-4.94985 0.421371 16.0207 174 167 142
-5.04563 0.698205 16.1091 183 124 56
0.752405 -1.00518 13.4885 186 184 173
0.95532 1.16156 14.871 176 138 82
-3.0466 -2.13191 13.3088 166 126 70
1.12313 -1.21466 13.5251 123 112 89
0.239508 -0.991318 13.5453 150 149 139
0.595651 -0.932351 13.4899 106 98 84
-0.333237 -0.832839 13.6467 84 70 48
1.41806 -0.986358 13.3925 116 106 80
-0.073235 -0.81478 13.5197 120 114 100
0.046426 -0.799885 13.558 149 146 133
0.203983 -0.805809 13.4939 130 127 113
1.34426 -0.734104 13.3551 186 178 156
0.0519871 -0.382779 13.5728 138 134 118
0.75282 -0.388614 13.4497 130 124 109
0.589182 -0.209743 13.5495 132 128 118
1.40905 -0.244684 13.481 138 137 126
1.82297 -0.257977 13.6828 122 114 96
2.49381 -0.329337 13.6917 160 152 134
2.41438 -0.292604 13.6744 128 118 96
0.42184 0.107507 13.6832 128 117 97
1.07574 0.173152 13.5998 120 118 110
2.50629 2.80425 12.5293 57 25 12
2.56197 2.8051 12.5546 74 37 19
-2.729 -2.75204 13.0747 54 46 36
-2.49829 -2.71602 13.1474 173 152 125
-2.767 -2.66344 13.1081 180 171 158
-0.530513 -1.05501 13.7611 124 120 107
-1.53954 -0.705767 14.4967 144 139 128
0.558035 -0.798217 13.491 160 159 150
1.17485 -0.708112 13.3535 120 108 88
0.542094 -0.616398 13.4893 186 186 178
-0.41988 -0.38006 13.6847 135 130 117
-0.910309 -0.240932 14.0509 154 154 146
-0.195618 -0.291694 13.6344 150 149 140
-0.709266 -0.112376 14.0142 106 102 88
0.659235 0.0319961 13.603 142 139 131
3.67806 -0.193243 13.4221 122 110 102
-2.73955 -2.68242 13.0926 57 58 64
-0.0174317 -1.97612 14.3846 176 174 163
1.41243 -0.989822 13.388 126 117 92
0.570386 -0.775913 13.4881 132 126 114
0.413137 -0.706183 13.5012 124 122 113
0.584977 -0.00726265 13.6256 146 145 138
2.66758 2.77886 12.5744 140 124 120
0.674756 -0.88442 13.4427 118 106 86
-0.231018 -0.477454 13.6651 142 138 124
0.292142 0.175618 13.7122 191 186 174
1.9799 3.06964 13.1555 132 92 80
0.224843 -1.12355 13.5482 191 188 178
0.449862 -0.88888 13.4891 186 190 185
1.13416 -0.301945 13.496 116 114 106
2.15054 -0.420973 13.7454 116 104 82
-1.04909 0.535061 14.9257 52 27 22
1.56635 2.91004 13.2722 36 12 8
1.4002 2.81735 13.238 70 34 20
1.45335 2.69965 13.0774 183 137 104
1.41378 2.79145 13.1784 156 110 78
1.08043 -1.41119 13.5972 118 107 82
-0.152993 -1.23112 13.6598 127 118 98
1.22073 -1.33177 13.6714 158 147 127
0.82647 -1.07186 13.4582 122 108 85
1.13661 -1.0707 13.4545 98 88 69
1.54263 -1.01024 13.4032 115 108 88
1.75354 -0.983036 13.3695 143 136 114
2.06652 -0.968751 13.2358 194 191 168
1.8894 -0.941023 13.3063 182 170 146
1.15989 -0.787057 13.4011 112 97 74
-0.0334691 -0.60321 13.5539 114 104 86
1.40306 -0.728866 13.3235 190 180 156
2.43802 -0.854832 13.5329 140 136 116
1.51621 -0.704506 13.3143 148 138 116
1.89113 -0.71965 13.2653 123 115 94
2.44301 -0.775879 13.4602 196 193 176
2.33981 -0.752585 13.5323 185 181 162
1.20126 -0.598747 13.3949 131 122 102
0.794389 -0.474189 13.4381 151 148 140
1.02588 -0.482522 13.4662 188 188 185
-0.113212 -0.312098 13.6235 160 158 146
0.998604 -0.388521 13.3787 97 89 75
0.937287 -0.368877 13.4628 116 117 110
2.54961 -0.321818 13.722 123 110 86
1.24656 -0.15332 13.4733 148 145 136
2.39172 -0.214666 13.6707 196 186 164
2.19424 -0.145487 13.6582 190 182 160
0.255892 0.106198 13.6979 136 124 104
2.83561 -0.129989 13.5099 193 182 160
0.300771 0.234497 13.74 155 150 130
0.773968 0.240985 13.6724 132 126 104
0.923564 0.311141 13.7602 156 151 132
1.44143 2.30799 12.9411 153 105 77
1.82131 2.45202 13.1853 148 108 88
-0.0280846 -1.32606 13.7444 108 92 66
1.09767 -1.39435 13.6278 166 158 144
0.671093 -1.1993 13.5303 150 142 125
0.925752 -1.22713 13.5141 142 142 126
0.814315 -1.02461 13.4805 130 118 96
0.0444812 -0.845815 13.562 185 179 162
1.56058 -0.999705 13.3577 113 104 81
-0.123039 -0.693974 13.5732 200 203 196
1.16319 -0.766007 13.5752 142 128 106
1.59231 -0.384289 13.4422 155 150 133
1.8173 -0.296677 13.6897 188 180 162
1.21732 -0.193158 13.5027 134 128 116
0.284153 0.210129 13.7494 160 156 134
0.0770662 0.252009 13.839 140 140 131
2.88714 -0.0960829 13.5297 196 186 168
3.35849 -0.106339 13.3739 142 126 98
1.14102 0.782405 14.0044 138 120 87
1.10697 0.969142 14.6378 176 145 95
1.57813 -1.2227 13.4678 140 132 111
0.579384 -1.05627 13.4246 116 105 85
0.186683 -0.980783 13.5166 143 138 124
1.59527 -1.00899 13.4503 131 121 100
1.92659 -0.960666 13.3165 111 101 78
0.449591 -0.77634 13.5049 184 185 176
2.48467 -1.02257 13.6779 118 100 89
1.30067 -0.717922 13.4187 126 116 94
0.859055 -0.64709 13.5567 144 134 118
-1.14001 -0.437567 14.1932 150 148 138
0.738291 -0.450987 13.4419 143 136 123
0.138719 -0.226531 13.593 192 190 182
3.66431 -0.37762 13.5753 154 136 108
3.41978 0.103014 13.3153 198 191 178
1.63412 2.45482 13.0026 182 141 126
0.657164 -1.70051 14.0259 156 143 122
0.640044 -1.19315 13.5341 190 184 165
0.645627 -1.12463 13.5714 88 76 52
1.05593 -1.09307 13.503 120 104 80
1.4549 -1.05358 13.3606 196 192 182
-0.29026 -0.672446 13.6515 156 152 139
0.565734 -0.705116 13.4207 188 186 172
1.02671 -0.588872 13.3871 116 106 88
0.222455 -0.187023 13.5981 192 192 182
0.680146 -0.135996 13.4851 110 104 92
0.321985 0.129796 13.6851 140 124 101
-0.118798 -1.92349 14.4319 176 176 170
0.205083 -1.85169 14.2343 108 94 75
1.93842 -1.5665 14.2784 112 94 82
0.81692 -1.17375 13.5404 191 190 180
0.682673 -1.039 13.6158 186 180 162
0.234201 -0.739279 13.4847 196 198 192
