ply
format ascii 1.0
element vertex 1300
property float x
property float y
property float z
property uchar red
property uchar green
property uchar blue
end_header
-0.0960494 0.273496 1.82427 166 134 122
0.107419 0.361846 1.90394 58 32 27
0.125921 0.529644 1.69179 130 108 96
0.0948212 0.530289 1.60384 64 36 15
0.117461 0.648856 2.22996 63 28 28
-0.693678 -0.61093 2.03602 154 158 108
0.451747 -0.355223 1.48295 114 117 72
-0.668733 -0.543996 2.03696 56 54 26
-0.356441 -0.330013 2.0703 110 111 66
-0.262726 -0.213172 1.81905 124 128 83
0.103612 -0.106044 1.81643 101 104 92
0.219792 0.18754 1.88813 108 67 42
0.0108898 0.414305 1.93561 130 110 107
0.0223309 0.494656 2.00869 130 112 112
0.0230718 0.512408 2.02168 118 94 94
0.0431705 0.63967 2.15062 125 99 98
-0.00337212 0.688553 2.20552 113 76 73
0.00441337 0.690282 2.20562 62 28 22
0.453474 -0.35522 1.48531 114 117 72
0.436221 -0.34593 1.54048 171 172 124
-0.353577 -0.332395 2.07694 124 126 80
0.308665 -0.0534966 2.01684 148 152 112
0.291095 0.0933082 2.01889 104 78 57
0.195435 0.162015 1.86272 129 100 84
-0.119882 0.405402 1.95622 122 98 92
0.044644 0.639452 2.15452 122 96 96
0.0350119 0.701354 2.2189 86 53 47
0.264928 0.164702 1.87452 108 110 80
0.178836 0.209862 1.88335 126 88 62
-0.0870596 0.53523 2.06596 128 102 98
1.21971 0.96326 5.09113 133 102 101
-0.0901079 0.55121 2.08564 50 14 6
-0.0773472 0.599365 2.13411 72 26 16
-0.0628083 0.665645 2.19108 82 34 24
-0.0601553 0.67837 2.22336 137 89 73
-0.00549342 0.688412 2.21431 115 78 74
-0.632235 -0.500119 2.03358 60 61 38
0.36817 -0.0552788 1.92066 58 36 9
0.0185988 0.508627 2.01545 98 78 76
-0.0861003 0.544256 2.07511 120 95 92
-0.0652864 0.601966 2.13231 99 64 59
0.0101287 0.686594 2.18614 136 103 99
-0.0638031 0.677815 2.22137 142 94 78
0.00378468 0.690154 2.2067 72 38 32
0.0351237 0.701475 2.21117 87 52 44
-0.272728 -0.891729 2.43095 82 86 30
-0.643335 -0.54399 2.03079 117 116 99
-0.196726 -0.54288 2.17194 105 111 77
-0.51221 -0.455067 2.0478 106 106 69
-0.360731 -0.329714 2.07064 78 84 48
0.294716 -0.0359203 2.0501 140 150 108
0.218584 0.196929 1.99309 25 12 4
-0.0709084 0.605186 2.15665 68 23 15
-0.0664707 0.679025 2.22339 142 92 78
-0.39413 -0.370987 2.07793 114 114 72
0.357916 -0.0315602 1.93331 65 52 20
-0.137955 0.280177 1.86719 172 144 140
-0.112934 0.445366 1.98718 117 92 88
-0.0911836 0.538463 2.06544 102 74 67
0.352508 -0.0251873 1.87189 100 66 34
-0.144316 0.281956 1.84987 176 147 146
0.235357 0.103287 1.88151 126 112 78
0.0185816 0.106939 2.10903 14 11 3
-0.66789 -0.542463 2.03374 61 61 32
-0.0858121 0.533406 2.07114 122 98 94
-0.0697266 0.600194 2.12801 126 96 94
0.0166597 0.686457 2.20353 86 49 46
-0.00438076 0.687841 2.21118 114 78 76
-0.395206 -0.36556 2.06712 102 102 62
0.0416736 0.627996 2.13869 128 102 98
-0.690744 -0.607962 2.03794 85 88 48
-0.638875 -0.502129 2.02437 52 57 36
-0.235794 -0.143751 2.04251 91 94 60
-0.630851 -0.499083 2.03377 54 56 32
-0.551456 -0.497638 2.05178 94 92 54
0.331304 0.202253 2.83999 110 100 86
-0.323395 0.227151 1.27404 148 126 110
0.0663699 0.218872 1.80412 16 12 3
-0.0894588 0.550557 2.0744 88 53 48
-0.594631 -0.235925 2.41598 148 138 82
-0.619989 -0.492102 2.02594 114 108 84
-0.683584 -0.565143 2.02859 114 114 96
-0.589729 -0.473833 2.03274 100 100 76
-0.00243214 0.346357 1.87819 30 8 5
-0.118142 0.403761 1.95811 123 99 96
-0.188676 0.608009 2.409 80 41 27
0.345999 -0.678263 1.86779 96 106 60
-0.355576 0.233872 1.61567 86 88 68
-0.905305 0.440357 1.7191 102 92 72
-0.166767 -0.132661 2.02933 153 154 106
0.305859 0.0263443 2.05117 152 143 119
-0.694648 -0.564578 2.01666 56 61 40
0.195982 0.771446 3.11934 65 24 16
-0.0860761 0.657995 2.10605 72 28 20
0.394769 -0.0633611 1.95639 72 56 24
0.098419 0.531448 1.592 89 58 40
0.146229 -0.491348 1.99777 143 150 103
0.222481 0.140607 1.89562 122 96 80
0.157261 0.205196 1.87006 52 24 8
0.159422 0.205642 1.87391 52 23 8
0.175344 0.15232 1.83956 81 58 41
-0.408103 0.274275 1.6781 163 118 88
-0.415521 0.286678 1.69983 60 24 12
0.0852828 0.70325 2.31137 104 72 70
-0.719803 -0.631774 2.02918 93 94 48
-0.682594 -0.56525 2.01377 72 72 52
-0.188708 -0.658932 2.22703 116 121 76
-0.590253 -0.52777 2.04357 94 94 52
-0.515071 -0.457224 2.04657 92 94 62
0.160889 -0.157161 1.76828 84 92 72
-0.254687 -0.233985 2.06703 106 112 71
-0.0785169 -0.209502 2.02509 132 138 90
0.105919 -0.107026 1.81507 92 96 84
-0.267286 -0.172134 2.03954 84 88 58
-0.437948 -0.229221 2.2924 94 94 42
-0.233507 -0.145492 2.04771 84 88 56
-0.170724 -0.0888978 1.98977 64 64 15
-0.425563 -0.10695 2.17039 70 50 30
0.2789 -0.0705 2.23481 149 146 108
0.307813 -0.0542554 2.2328 155 155 116
-0.435385 -0.067469 2.15007 80 56 28
0.287771 -0.0428702 2.25366 122 100 74
-0.448342 0.0954401 2.09495 86 45 23
0.15511 0.231249 1.85461 152 124 114
0.162638 0.237679 1.85195 78 45 18
0.156041 0.262279 1.83383 142 114 104
-0.00161446 0.272407 1.78065 92 78 62
-0.00587075 0.273519 1.83294 70 42 23
-0.135765 0.327425 1.88872 86 53 48
0.0746565 0.369643 1.92414 56 26 22
-0.129393 0.359703 1.91295 113 90 85
-0.0944898 0.485414 2.03739 104 64 56
-0.093005 0.528942 2.02764 111 66 56
0.227885 0.634193 2.27191 91 56 48
0.142715 0.634277 2.20183 74 42 38
-0.0627022 0.599801 2.12655 68 23 16
0.0409224 0.626959 2.13833 127 98 95
0.130487 0.673538 2.24247 85 54 51
-0.0488621 0.688188 2.22809 81 36 21
0.274596 -0.858507 2.06106 76 82 30
-0.59945 -0.529524 2.03844 118 120 78
-0.590974 -0.528066 2.04488 85 85 49
-0.602674 0.118329 0.680926 75 75 38
0.150327 -0.151576 1.75838 91 98 78
-0.247913 -0.240792 2.09035 98 104 65
0.106618 -0.108499 1.81369 84 88 74
-0.164761 -0.165372 2.08669 108 114 70
-0.572822 -0.238955 2.34802 54 44 10
0.36909 -0.0345917 1.89161 84 54 23
0.309779 -0.0848747 2.19479 141 139 111
0.329692 0.0271696 1.8337 110 74 49
0.233052 -0.0331262 2.23142 35 14 2
0.323722 0.083601 2.06134 148 126 99
0.320113 0.0919253 2.06798 46 19 4
0.0104116 0.109313 2.09668 11 8 0
0.174115 0.225293 1.87926 60 30 11
-0.100523 0.48324 2.0207 107 65 58
-0.0875096 0.533206 2.06577 122 96 95
0.0378954 0.573675 2.09373 117 86 86
-0.0701152 0.59977 2.12561 120 94 88
0.123766 0.670817 2.21926 82 51 48
-0.0490192 0.687388 2.23045 86 40 25
-0.719095 -0.632625 2.03144 128 128 76
-0.631124 -0.547273 2.03863 48 50 30
-0.599231 -0.52942 2.03621 136 137 90
-0.590583 -0.525431 2.03956 88 89 50
-0.284242 -0.266083 2.07775 100 103 63
-0.121627 -0.0527834 1.89245 86 86 44
0.349823 -0.0313382 1.92423 86 79 44
0.348867 -0.0249988 1.91414 150 147 110
0.334319 -0.0103296 1.88267 146 132 98
-0.436816 -0.0665155 2.15291 86 59 33
0.223376 0.152934 1.87925 86 42 6
-0.18569 0.288609 1.87242 77 30 9
-0.11489 0.442437 1.97879 110 83 77
-0.100744 0.481763 2.02131 107 65 58
-0.0432605 0.520573 2.03792 116 72 66
-0.061417 0.52092 2.03217 110 66 62
0.177765 0.5612 2.13906 62 24 10
0.0331224 0.571043 2.08404 124 94 94
-0.0695368 0.600458 2.13013 118 91 86
-0.0372947 0.678454 2.20847 70 26 20
-0.0480129 0.687338 2.23392 82 37 23
-0.631793 -0.497256 2.02812 52 52 28
-0.620482 -0.495701 2.02421 93 92 66
0.19593 -0.192584 1.68987 73 80 57
0.154474 -0.154957 1.76109 82 89 68
0.131382 -0.133102 1.78029 82 90 71
-0.238998 -0.146701 2.04127 94 95 65
-0.113182 -0.055915 1.91926 80 79 37
0.287005 -0.0422139 2.25526 124 100 73
0.14454 0.219899 1.8575 118 94 83
0.205137 0.245552 1.86283 86 52 36
-0.0125175 0.293291 1.81561 100 64 49
0.144737 0.503705 2.06289 106 79 78
-0.061409 0.520697 2.03303 110 66 62
0.167401 0.571876 2.1504 49 18 12
-0.0867184 0.538852 2.07171 114 88 86
-0.658545 -0.580459 2.03702 99 98 65
-0.643614 -0.54382 2.02817 102 102 86
-0.591186 -0.528651 2.04468 88 88 51
0.185454 -0.243716 1.52534 156 159 113
0.12182 -0.12868 1.77255 78 86 68
-0.158013 -0.146048 2.05972 162 163 122
0.240693 0.149791 1.95066 155 129 116
0.00264565 0.294831 1.75828 156 135 134
0.104022 0.521721 1.67776 89 64 50
-0.0876545 0.540023 2.07214 109 86 82
-0.0678291 0.609633 2.1428 95 63 54
-0.0781532 0.617904 2.15067 52 18 12
0.0370449 0.702538 2.22277 94 58 52
-0.636351 -0.50053 2.02547 47 49 24
-0.480431 -0.432767 2.04483 94 96 52
-0.581663 0.12563 0.697949 154 160 118
0.399252 -0.0792432 1.93891 157 163 117
0.381027 -0.0651196 1.94207 47 28 2
-0.187124 0.291018 1.86196 82 36 14
0.0244342 0.381535 1.917 30 12 8
-0.122158 0.402604 1.95379 86 59 52
0.0192574 0.504087 2.01447 94 72 71
0.260432 0.583369 2.23803 73 41 32
-0.151107 0.61186 2.25314 82 45 39
-0.040455 0.677967 2.18911 76 28 17
-0.692428 -0.608173 2.03803 92 98 54
0.258367 0.144765 1.98862 70 39 23
0.179788 0.202635 1.91794 43 16 6
-0.0915097 0.536595 2.06976 90 54 48
-0.152022 0.612409 2.24804 75 39 34
0.0333763 0.700837 2.21596 103 68 63
0.364557 -0.0355237 1.89213 133 98 68
-0.665826 0.107979 1.82827 149 141 112
0.0415959 0.704184 2.24141 94 61 55
0.283396 -0.868051 2.08862 88 92 37
-0.135717 -0.49892 2.13918 108 118 70
0.304192 0.160103 1.93458 90 96 62
0.0230021 0.5117 2.02184 110 88 84
0.0439094 0.639822 2.15296 124 98 96
0.0453398 0.69518 2.22846 128 94 88
-0.43745 -0.39757 2.05402 100 104 62
0.0444547 -0.0506332 1.88988 84 88 72
-0.078474 0.597707 2.12662 76 26 19
0.045015 0.637938 2.15288 124 98 96
-0.050028 0.66883 2.19661 118 81 75
-0.688738 -0.606747 2.03504 99 104 58
0.458059 -0.335616 1.50247 55 60 28
-0.3966 -0.360786 2.05405 102 104 61
0.01458 0.341748 1.88081 20 7 6
0.0837924 0.401768 1.59476 140 138 122
0.147329 0.635562 2.21271 68 35 35
-0.137986 -0.016475 1.94428 85 90 63
0.217974 -0.0263243 2.20346 28 10 5
-0.19174 0.289244 1.85917 74 27 8
0.0242777 0.498105 2.02733 80 58 54
0.0270813 0.508443 2.02823 113 96 94
-0.0484575 0.671156 2.19758 118 84 79
0.339729 -0.0188161 1.89674 150 144 109
-0.119825 0.402514 1.95488 113 90 82
-0.117416 0.446039 1.97306 120 94 88
0.195114 0.574192 2.20236 46 16 10
0.031873 0.569149 2.08246 103 73 72
-0.664067 -0.544445 2.04005 44 48 26
0.340051 -0.0211455 1.90524 149 150 112
-0.695452 -0.589891 1.99975 62 70 32
0.23578 0.096945 1.87097 97 90 59
-0.0243989 0.0853579 2.14129 103 101 96
0.0282539 0.513692 1.4943 80 53 36
0.315142 -0.0557704 2.02119 103 115 78
-0.5515 -0.493442 2.04238 82 80 44
0.0046512 0.688381 2.20154 65 24 18
-0.633531 -0.504693 2.04346 57 60 32
0.0185058 0.462856 1.95932 30 14 13
-0.594851 -0.52791 2.04287 108 108 70
-0.311076 0.242806 1.46241 86 69 50
0.254604 0.00113016 1.74419 87 73 39
-0.691545 -0.565973 2.02232 45 48 25
-0.116801 -0.464961 2.13636 114 118 77
0.462569 -0.36297 1.50305 78 80 38
-0.339533 0.151965 1.57679 132 128 94
-0.395562 -0.363161 2.06057 118 120 72
-0.338793 0.275522 1.64463 153 112 90
0.420243 -0.149552 1.89639 76 68 27
-0.342457 0.335587 1.12658 146 126 112
-0.553548 -0.495331 2.04155 100 98 54
-0.653074 -0.57479 2.03839 148 146 102
0.0143666 0.461448 1.9706 122 96 92
-0.0440874 0.521544 2.03353 120 76 68
-0.0884339 0.533223 2.06607 122 96 95
-0.0768354 0.598589 2.13037 72 28 21
-0.050696 0.666643 2.19261 120 88 79
-0.0554503 0.681283 2.22796 132 82 65
-0.109166 -0.278965 1.77991 91 99 49
-0.148167 -0.00348283 1.90509 48 50 23
-0.0574842 0.669653 2.20014 68 23 14
-0.12045 0.187243 1.86213 76 62 48
0.0221992 0.50591 2.02018 114 95 94
-0.154839 0.610099 2.22802 106 81 78
0.0406556 0.69901 2.24562 135 102 98
0.00366713 0.110454 2.06845 11 8 3
-0.149354 0.263503 1.87695 44 12 2
-0.12416 0.401347 1.95342 66 38 33
-0.565829 0.506075 1.52053 102 96 78
-0.109048 -0.279761 1.77855 109 117 64
-0.0838489 -0.18658 2.00365 151 154 104
0.0220144 0.511633 2.02106 105 83 80
-0.102407 -0.176604 1.95976 162 165 114
0.235831 0.294114 1.93472 75 73 52
-0.082244 -0.192025 2.00443 164 168 116
0.210453 0.131714 1.8902 38 15 2
0.0445369 0.292491 1.8133 128 108 98
0.181943 0.623654 2.19058 96 66 56
-0.104699 -0.282805 1.80043 99 110 56
0.230143 0.468899 2.10373 108 84 74
-0.554535 0.518949 1.5602 98 90 69
-0.192019 -0.126282 1.97994 156 161 112
0.204154 0.189604 1.91257 133 89 60
0.00700132 0.273443 1.80083 104 84 69
0.0209698 0.630988 2.10666 100 71 67
-0.693 -0.575048 2.02844 51 53 30
-0.0554567 0.0943402 2.03429 114 114 108
0.242761 0.280736 1.94793 138 126 113
0.00579029 0.272684 1.79839 98 82 65
0.236274 0.445304 2.08602 84 54 40
-0.705206 -0.53657 1.93643 50 56 30
-0.302067 -0.544254 2.0614 138 138 90
-0.43637 -0.33748 1.65781 80 88 40
-0.107625 -0.188715 1.94234 166 172 119
0.0282238 0.0885901 2.14357 24 21 14
0.176551 0.197864 1.90281 40 16 6
-0.121338 0.194257 1.86778 64 41 23
0.133138 0.225787 1.86765 64 43 26
-0.633388 -0.545466 2.03669 48 52 30
-0.0811502 -0.137428 1.16896 143 146 98
-0.534733 -0.434235 2.03437 70 72 51
-0.475919 -0.433896 2.05406 83 85 44
0.252845 -0.235737 1.64239 87 94 69
0.226924 -0.215623 1.66494 78 86 62
-0.164427 -0.343188 2.06593 98 108 68
-0.303972 -0.208434 2.04302 86 88 64
0.128731 -0.129711 1.78508 86 92 76
0.386687 -0.0657164 1.94976 50 35 4
-0.148364 -0.034303 1.80994 98 97 64
0.314467 -0.0564326 1.99508 131 142 101
-0.273751 -0.124152 2.24565 110 114 72
0.298636 -0.0475539 1.98914 112 124 82
0.290223 -0.0414796 2.01479 140 154 114
-0.434455 -0.0690964 2.16051 78 56 30
0.257591 -0.0542429 2.23714 157 140 112
0.31833 0.0557625 1.83181 123 90 74
0.291085 0.0881043 1.83119 129 92 76
-0.112848 0.0875646 2.00152 74 77 62
0.309397 0.158751 1.94691 89 98 59
0.147532 0.220689 1.86318 134 110 97
0.139353 0.222896 1.87062 56 28 16
0.135329 0.232486 1.82327 65 42 26
-0.354722 0.236991 1.62826 110 118 92
0.161585 0.261486 1.84407 108 80 72
-0.00727512 0.26536 1.816 118 99 88
-0.241319 0.314998 1.94376 160 114 103
-0.030319 0.402419 1.91168 116 83 77
0.150611 0.507295 2.07411 124 98 96
-0.0462912 0.520223 2.02911 118 71 65
0.147942 0.563804 2.12065 126 97 94
0.0504015 0.51271 1.51632 161 143 133
-0.07738 0.540275 2.08172 63 26 22
-0.182702 0.537303 2.18073 130 95 86
0.133327 0.568236 2.10995 58 27 25
0.154082 0.573224 2.12308 46 16 10
-0.176524 0.549666 2.19921 114 88 84
-0.0897597 0.552066 2.07979 54 14 6
0.231882 0.633399 2.28367 81 44 37
0.149727 0.630114 2.19334 129 99 97
-0.0704282 0.599135 2.12387 125 95 92
-0.142484 0.612691 2.24143 56 16 12
-0.0398344 0.686171 2.20765 80 36 24
-0.19744 -0.688371 2.25144 130 136 90
0.418002 -0.336923 1.52932 94 96 51
0.41137 -0.343635 1.58494 148 150 101
0.390685 -0.33284 1.5665 92 94 46
-0.551874 -0.496426 2.0489 80 78 40
-0.515857 -0.459769 2.0361 92 93 49
-0.476712 -0.433403 2.05274 83 85 44
-0.104335 -0.283011 1.7899 100 106 58
0.132006 -0.132483 1.78997 80 85 68
-0.214555 -0.201863 2.07879 92 99 46
-0.351763 -0.186129 2.26577 121 124 72
0.0432737 -0.0500596 1.88561 90 94 80
-0.146624 -0.0368173 1.81381 94 93 59
0.306814 -0.0934958 2.19718 70 69 34
0.288873 -0.0796265 2.17811 136 132 100
-0.10194 0.0521621 2.0491 63 61 40
-0.11404 0.0867636 1.99796 68 71 56
0.242252 0.170568 1.87835 136 88 75
0.191436 0.195477 1.89646 132 86 60
0.215581 0.206937 1.87859 85 41 14
0.148343 0.221117 1.86218 132 106 96
0.154247 0.229517 1.85518 152 128 116
0.247331 0.21939 2.13589 77 61 44
0.189185 0.266527 1.89451 158 130 120
-0.00352401 0.273614 1.77987 74 61 44
0.00104003 0.289124 1.75432 127 108 100
0.018685 0.297696 1.77504 162 142 134
-0.242135 0.314867 1.93949 160 114 103
-0.136122 0.326353 1.89002 88 51 45
-0.239183 0.356761 1.9912 102 56 48
0.155251 0.440848 2.02557 98 68 66
0.15254 0.505284 2.07888 122 98 97
0.182642 0.558923 2.13922 48 14 5
0.0978774 0.522801 1.60598 160 145 134
0.106297 0.525292 1.58369 116 92 72
-0.0838835 0.540961 2.05964 62 26 22
0.146807 0.572174 2.13198 123 96 93
0.0975183 0.534293 1.59102 114 90 75
0.2074 0.628683 2.25362 110 76 69
0.0414634 0.626779 2.13837 129 99 99
-0.0468369 0.671044 2.20666 123 86 78
-0.00601885 0.686968 2.20131 108 70 64
0.0337772 0.702169 2.22728 95 62 56
0.0056839 0.707425 2.21216 122 86 78
-0.552333 -0.496268 2.04865 80 78 40
-0.105131 -0.28226 1.79205 95 102 53
-0.388043 -0.292062 2.0394 75 78 54
-0.32119 -0.296363 2.06669 101 104 64
0.152666 -0.152684 1.75973 88 94 76
0.129625 -0.129764 1.7826 85 91 74
-0.255906 -0.036551 1.86156 108 110 70
0.28303 -0.0389049 2.01272 107 122 79
0.29676 -0.0514283 2.21037 148 144 108
0.263208 -0.0560264 2.25177 156 142 112
0.279258 0.0587584 2.03472 43 17 2
0.0566619 0.188569 1.84926 56 48 35
0.219155 0.206177 1.8815 84 38 12
0.1549 0.213033 1.87534 32 10 2
0.161861 0.230338 1.85192 60 26 6
0.153848 0.228235 1.8551 140 116 102
0.307896 0.265886 2.05876 114 96 86
-0.00371025 0.296753 1.73605 132 114 107
-0.241654 0.314238 1.93932 139 94 84
-0.135729 0.32668 1.89145 92 57 52
0.149676 0.505555 2.07302 115 90 88
0.145366 0.568311 2.1248 121 93 91
0.14227 0.571503 2.14292 58 26 24
-0.0846286 0.545373 2.07768 114 90 88
-0.177662 0.545969 2.1996 116 90 84
-0.0918944 0.55139 2.0846 56 14 6
0.154897 0.635384 2.21044 124 96 94
-0.145687 0.61718 2.25612 105 78 74
0.0347348 0.624662 2.11832 126 94 95
-0.0580376 0.672361 2.21321 78 28 14
-0.074069 0.692306 2.24582 104 58 40
0.00828513 0.708102 2.20825 120 82 76
0.419774 -0.338392 1.53034 70 72 30
0.180806 -0.176448 1.7409 76 84 62
0.0735231 -0.0783751 1.85229 74 78 64
-0.415219 -0.112194 2.20713 68 50 32
0.311248 -0.0753049 2.19483 66 57 32
0.291305 -0.0424615 2.0247 94 106 66
0.284153 -0.0728519 2.23229 143 147 111
0.218152 0.161922 1.90084 64 34 16
0.225851 0.18991 1.90242 112 69 42
0.0608574 0.188121 1.86468 57 51 35
0.22076 0.205874 1.8879 80 35 9
0.152444 0.211349 1.87405 30 10 1
0.162839 0.229704 1.85551 53 19 2
0.112323 0.24183 1.75875 57 30 13
-0.00252933 0.303115 1.73039 158 137 132
-0.243054 0.314567 1.94248 154 108 98
-0.006132 0.342849 1.87918 24 6 2
-0.128718 0.361756 1.92193 114 92 87
0.149748 0.570219 2.15097 96 68 66
0.165965 0.572659 2.14825 42 14 8
-0.184543 0.538368 2.16955 122 94 87
0.107632 0.531375 1.59405 120 93 73
0.129782 0.579244 2.11724 52 23 19
-0.192695 0.606313 2.3732 78 32 18
0.0990049 0.672548 2.19395 140 114 110
-0.539788 -0.474386 2.0515 48 54 24
-0.514782 -0.468297 2.05733 77 80 37
0.178714 -0.176368 1.74038 76 84 62
-0.415305 -0.11617 2.20579 76 58 41
0.303658 -0.054317 2.22512 152 152 113
0.284623 -0.044086 2.25655 128 110 82
0.242646 -0.0370337 2.27515 26 10 3
-0.294712 0.135064 1.68238 102 110 79
0.238772 0.149823 1.91044 104 58 24
0.189877 0.202545 1.8887 87 49 18
0.182123 0.212069 1.89257 104 75 60
0.241886 0.266999 1.94297 72 47 37
0.0966841 0.534036 1.59627 106 82 67
0.145116 0.632309 2.18762 117 88 86
0.444418 -0.350667 1.46357 156 159 114
-0.544121 -0.488671 2.06166 118 118 74
-0.322497 -0.295386 2.06736 94 96 58
-0.416701 -0.109459 2.19408 60 40 20
0.325341 0.0200981 1.82643 125 82 60
0.318793 -0.055287 2.24412 146 159 116
-0.075828 0.104469 2.02452 96 93 86
0.152383 0.21086 1.85548 30 9 3
0.178844 0.20978 1.86238 86 48 17
0.166656 0.236723 1.86991 69 38 16
-0.198114 0.221462 1.90202 24 9 7
-0.163101 0.244323 1.79802 101 67 58
0.224754 0.269512 1.92527 70 45 36
-0.00732417 0.279736 1.76766 130 104 94
0.112373 0.526734 1.60245 85 48 23
0.0404348 0.630883 2.14609 96 64 64
-0.581449 -0.44335 2.03317 50 54 26
-0.32535 -0.293432 2.05713 84 87 50
0.228085 -0.0172433 2.11435 130 114 82
-0.0733765 0.0767619 2.03359 51 58 42
0.20602 0.184017 1.91128 141 92 69
0.249844 0.238982 1.94904 92 60 48
0.0502293 0.464976 2.02857 36 16 14
0.143067 0.539997 1.75135 128 106 94
-0.565472 0.507016 1.51578 94 86 67
0.458409 -0.348868 1.50743 46 50 24
-0.432879 -0.156039 2.23561 144 140 85
-0.417463 -0.114089 2.19911 80 60 40
0.0137783 0.334407 1.84798 38 14 12
-0.564066 0.505929 1.53745 116 107 88
-0.690069 -0.607897 2.03778 78 82 41
-0.261737 -0.169543 2.04655 80 84 55
-0.00498008 0.313572 1.85298 41 10 3
-0.151699 0.431585 1.95694 106 58 48
-0.0468513 0.669662 2.20776 124 86 76
-0.797522 -0.691441 2.04309 71 68 32
-0.122117 -0.129733 1.25333 120 120 80
-0.233519 -0.149646 2.05839 82 86 56
-0.611846 -0.217681 2.3752 95 68 23
-0.0149555 0.00218765 1.94504 78 86 74
-0.115409 0.0326073 2.06781 25 18 2
-0.14198 0.612073 2.2421 62 17 10
-0.0703635 0.621692 2.15517 52 16 8
-0.688458 -0.596137 2.02701 43 50 22
-0.143235 -0.0372909 1.82217 96 96 62
-0.29523 0.136137 1.68096 114 124 93
-0.134939 0.289981 1.85512 70 33 18
0.15536 0.569246 2.12428 40 14 11
-0.903462 0.442065 1.71181 90 80 62
-0.614771 -0.224217 2.39339 85 62 15
-0.658292 0.116582 1.75532 154 147 113
-0.17841 0.399803 1.98481 30 4 2
0.12847 0.567702 2.10827 62 28 27
0.135922 0.634388 2.19179 71 39 34
-0.619609 -0.535542 2.04328 34 38 18
-0.61924 -0.488208 2.01258 100 96 74
-0.426856 -0.164475 2.27737 146 141 89
-0.159478 -0.104642 2.0408 52 54 14
0.264103 -0.0265748 2.11935 146 146 108
-0.077531 0.103226 2.03909 84 81 72
-0.0138636 0.271738 1.7742 76 58 43
-0.131618 0.26495 1.84633 42 16 8
-0.0112243 0.290809 1.81517 108 73 60
-0.905135 0.439605 1.71878 106 96 78
-0.150662 0.613786 2.24054 93 62 56
0.425836 -0.343881 1.53918 142 146 96
-0.0286735 0.0854376 2.08778 112 114 108
-0.471996 0.0858693 2.08077 129 120 88
-0.176986 0.547359 2.2181 104 70 64
0.0289439 0.566607 2.07545 105 72 71
-0.0710793 0.606293 2.13068 111 82 77
-0.565454 0.509997 1.5225 94 86 68
-0.00515051 0.298219 1.7392 150 128 122
-0.0712798 0.604908 2.13278 93 56 49
-0.0861068 0.617837 2.16127 46 12 6
-0.586778 -0.524164 2.04863 148 148 102
0.400778 -0.338939 1.58128 85 88 42
-0.164378 -0.343658 2.06893 94 104 64
0.28977 -0.868681 2.08252 87 94 42
0.348558 -0.677985 1.87398 76 92 44
0.0694928 0.256575 1.76185 124 104 86
0.401624 -0.337854 1.57768 109 112 66
-0.437122 -0.0222691 2.1196 148 136 90
-0.181074 0.399145 1.98319 38 6 1
-0.0982451 0.55028 2.07998 60 15 8
-0.239173 0.070267 1.75679 32 26 12
0.0654712 0.23745 1.74796 55 44 33
0.0994088 0.660606 2.15673 106 78 74
0.457819 -0.358491 1.49617 96 97 54
-0.634236 -0.550649 2.04636 40 44 23
-0.297804 -0.201505 2.03885 84 86 60
0.123866 0.665535 2.22589 116 88 84
-0.684605 -0.551503 2.0106 52 50 25
0.276692 0.373425 2.19543 96 82 74
-0.694564 -0.569235 2.02707 47 50 29
0.306773 0.453778 2.21927 139 126 115
-0.685685 -0.588285 2.03064 99 98 76
-0.267746 -0.174827 2.04781 78 82 52
0.153495 0.222245 1.85311 96 74 60
0.126585 0.670814 2.22526 76 46 43
-0.356187 -0.329901 2.06901 98 104 60
-0.0723714 0.622288 2.14573 59 19 10
0.123349 0.664791 2.21988 122 95 91
0.316656 -0.0592741 2.00066 151 162 121
-0.217294 0.0120871 1.77051 126 130 97
-0.243591 0.394744 2.07718 122 94 84
-0.212428 -0.737279 2.27882 119 122 79
-0.13453 -0.503506 2.14644 112 122 76
-0.204603 -0.721567 2.27841 137 140 96
0.128982 0.673151 2.23101 72 45 42
0.396043 -0.338406 1.57747 143 146 96
0.109149 0.670888 2.22117 100 70 68
-0.0850297 0.616132 2.14103 50 14 6
-0.491812 0.502715 1.52053 82 74 48
-0.494492 0.506706 1.52612 90 78 58
0.257006 0.0464135 1.94252 116 100 74
-0.134242 0.360364 1.9102 78 52 46
0.293997 -0.881307 2.11224 128 134 81
-0.684937 -0.593253 2.04134 100 101 81
0.470935 -0.353285 1.45622 83 90 62
0.419831 -0.338094 1.53873 128 132 90
-0.221774 -0.463698 2.15123 117 123 78
-0.150678 -0.314267 2.06724 109 116 82
-0.214221 -0.203551 2.08208 88 95 44
0.271266 0.0722195 1.82567 128 85 68
0.168773 0.270524 1.85072 152 126 114
0.15086 0.273262 1.83998 113 86 78
0.0190387 0.287049 1.79542 114 100 88
-0.013856 0.29388 1.814 77 40 27
-0.119581 0.401418 1.95481 118 92 88
0.0616746 0.520082 1.5524 120 104 96
0.195992 0.644027 2.25957 91 64 62
0.467833 -0.352985 1.45455 76 82 53
-0.632423 -0.571265 2.06457 150 148 102
-0.310057 -0.157059 2.26591 144 148 102
-0.173922 -0.0889138 1.97536 58 60 13
-0.283008 -0.120975 2.20952 116 122 76
0.08867 0.258384 1.77079 116 98 82
-0.00508059 0.265425 1.82254 112 94 82
0.0130879 0.278157 1.81002 134 107 97
-0.139583 0.266879 1.83607 42 16 6
-0.183169 0.537587 2.18207 133 96 88
-0.176907 0.547808 2.1996 122 95 90
-0.189531 0.609271 2.41301 80 41 27
-0.0575797 0.613534 2.16932 116 92 92
0.429689 -0.345114 1.54132 96 100 50
0.232664 0.114708 1.85296 88 48 16
0.238487 0.116139 1.88883 125 92 60
-0.321444 0.180316 1.65015 98 108 82
-0.145446 0.218813 1.81468 40 12 2
0.116148 0.237917 1.866 101 83 66
-0.140036 0.239039 1.79048 68 46 40
-0.0612368 0.520269 2.03102 116 69 62
0.039061 0.565845 2.09543 122 94 94
0.456078 -0.335688 1.49949 54 58 32
-0.20573 -0.609024 2.21609 94 100 66
-0.355704 -0.331851 2.07457 95 100 54
-0.249633 -0.239402 2.08469 102 108 62
-0.159807 -0.152307 2.06471 162 160 117
-0.174946 -0.0898436 1.97556 56 58 12
0.373477 -0.0349892 1.90021 102 70 40
0.351304 -0.0257417 1.9175 106 88 54
-0.401958 -0.101519 2.2167 158 145 103
0.235732 -0.0350766 2.24467 30 14 4
0.307249 0.0605293 1.81363 122 88 70
0.177604 0.204728 1.89219 43 18 8
0.117381 0.237279 1.82586 115 84 65
-0.0892449 0.551641 2.10001 57 13 6
-0.157797 -0.31167 2.04823 100 107 74
-0.251199 -0.240083 2.08366 110 116 71
-0.157469 -0.160205 2.08421 161 162 116
0.283913 0.0738039 1.93145 150 150 114
0.167124 0.206163 1.88632 28 10 4
0.00279378 0.275413 1.79231 111 88 74
0.0334977 0.46716 1.99608 32 12 10
0.149763 0.223953 1.85695 112 92 75
0.171497 0.227705 1.87773 53 22 4
0.10764 0.241349 1.84123 122 96 78
0.101973 0.522385 1.6736 104 77 60
0.117077 0.579765 2.10693 56 25 22
0.424741 -0.342097 1.53761 102 104 58
-0.00494608 0.280609 1.7765 130 104 94
-0.182902 0.537335 2.2027 92 43 32
0.133348 -0.492949 1.94248 146 154 106
0.0927144 -0.295635 1.98865 148 150 110
0.329613 0.118529 2.09006 90 63 45
0.22965 0.233906 1.89484 84 48 30
-0.226985 0.46553 2.07616 112 84 78
0.170817 0.576266 2.16441 50 18 12
-0.0941584 -0.18495 1.97396 164 167 120
0.331489 0.117884 2.0942 90 63 45
-0.131269 -0.206389 1.73655 154 156 112
0.160608 -0.522731 1.99649 133 140 95
-0.094245 -0.130214 1.1577 108 111 64
0.275039 0.583095 2.2665 72 41 30
-0.0635192 -0.278267 1.89043 156 160 110
0.075349 -0.288644 1.95103 143 148 104
-0.131466 -0.0472863 1.86134 90 86 46
-0.145223 -0.0440552 1.86704 68 70 28
0.150451 -0.407279 2.118 50 62 26
0.0957094 0.290338 1.72956 72 53 36
-0.667066 -0.510123 1.95884 62 61 38
0.108013 0.513301 1.63845 160 150 140
-0.200457 -0.69718 2.25338 104 108 64
0.349313 -0.316462 1.59497 98 101 58
-0.225607 -0.455307 2.13209 110 114 70
-0.126949 -0.451016 2.11106 108 116 67
0.292008 -0.26452 1.62768 82 88 62
-0.163908 -0.343571 2.06667 94 107 66
-0.249962 -0.175146 2.05409 68 74 42
0.0721524 -0.0763336 1.84982 78 84 69
-0.427058 -0.0719767 2.1695 137 124 80
0.329667 0.0225167 2.14551 42 24 5
0.299807 0.0766282 1.82157 92 56 40
-0.318643 0.1777 1.66074 100 111 85
0.146409 0.222992 1.85086 143 119 110
0.0608922 0.238493 1.74016 87 75 60
0.150999 0.238575 1.8538 35 12 3
0.0670899 0.251326 1.74818 104 88 66
0.0784521 0.262448 1.75036 88 66 50
0.161116 0.261677 1.84244 92 65 56
0.314012 0.261902 2.06662 144 132 120
0.158417 0.272938 1.83091 152 125 117
-0.00516318 0.271313 1.78089 72 56 38
-0.374313 0.268165 1.59768 108 114 92
-0.135133 0.265995 1.85151 46 18 6
0.066318 0.292265 1.67477 98 72 52
0.00179709 0.295146 1.74996 130 110 98
-0.196299 0.287672 1.87165 91 44 18
-0.134363 0.290446 1.85484 74 34 16
-0.277239 0.311215 1.98202 121 88 78
-0.277299 0.312953 1.99906 114 84 77
-0.291406 0.359864 2.07946 132 92 74
0.0279047 0.468363 2.00397 74 48 45
-0.206297 0.483022 2.14199 116 90 88
-0.0773318 0.554783 2.07694 58 16 8
0.207649 0.629047 2.25675 124 94 88
0.195332 0.643249 2.25955 92 68 64
0.134388 0.631113 2.17254 56 26 24
-0.0634674 0.616226 2.15263 113 82 79
0.116479 0.67338 2.20587 72 44 39
-0.0313062 0.686771 2.21156 118 71 60
0.0230865 0.698503 2.27187 88 46 40
-0.0398995 0.6903 2.21452 85 46 37
-0.199164 -0.535232 2.16019 92 100 67
0.209355 -0.179854 1.72804 81 90 70
-0.268428 -0.175183 2.04696 71 76 48
-0.396099 -0.20925 2.27584 102 101 47
0.40341 -0.0821348 1.95294 150 154 114
-0.402582 -0.116755 2.26453 139 126 83
0.306522 -0.081986 2.18569 140 144 112
0.286434 -0.0758501 2.23294 144 149 113
-0.319643 -0.0911393 2.3283 143 127 84
0.279546 -0.0348836 2.21975 140 128 96
-0.427089 0.0082498 2.07053 142 136 83
0.307762 0.073257 1.84046 104 67 51
-0.396948 0.0497175 2.24018 118 100 61
-0.410604 0.0871672 2.12024 138 120 80
-0.421843 0.112569 2.11909 90 56 32
0.0601402 0.171091 1.9231 47 46 35
0.0625376 0.210151 1.80704 68 62 48
0.159177 0.2351 1.84186 70 41 23
0.0647426 0.256518 1.73023 124 102 83
0.164805 0.27031 1.84534 158 131 122
-0.137533 0.265395 1.83945 42 16 6
-0.00340636 0.283566 1.76092 132 107 95
-0.0117206 0.292452 1.81549 66 28 16
0.00159884 0.343943 1.89584 30 6 3
0.0271809 0.459068 1.98155 46 20 18
-0.18397 0.536709 2.17805 130 87 78
-0.17837 0.547045 2.19451 119 94 88
0.227029 0.629525 2.26782 76 46 36
-0.153857 0.605229 2.22667 125 82 76
0.15905 0.629312 2.19764 80 48 46
0.193411 0.6413 2.24704 91 68 64
-0.0596689 0.669749 2.19227 82 33 21
-0.0758443 0.692419 2.24125 90 43 24
-0.0409613 0.689515 2.22078 88 50 42
-0.718898 -0.634027 2.03379 94 99 53
-0.210978 -0.596026 2.19159 92 100 67
0.180447 -0.177237 1.74216 76 82 62
-0.28317 -0.240132 2.06467 78 84 54
-0.237751 -0.196417 2.06224 78 82 49
-0.617037 -0.227657 2.39999 94 72 27
-0.231863 -0.0602291 1.89657 93 94 58
-0.403302 -0.108021 2.23007 142 127 84
0.248225 -0.0477438 2.25937 83 60 45
-0.183783 0.0818749 1.9623 66 72 60
-0.422364 0.0739739 2.04428 120 113 64
0.18147 0.196567 1.86356 128 84 61
0.0672118 0.209515 1.82418 67 60 46
0.148587 0.220681 1.85943 135 111 102
0.13809 0.22314 1.86506 52 26 12
0.160013 0.262067 1.83815 100 73 66
-0.40462 0.309939 1.58519 104 107 86
-0.201669 0.474906 2.12867 50 14 8
0.0325909 0.573586 2.08296 110 86 82
0.158225 0.626909 2.18804 84 52 48
-0.148299 0.615647 2.23746 100 73 70
0.188003 0.643065 2.24006 82 56 54
-0.0399835 0.687036 2.22103 84 42 35
-0.692481 -0.567375 2.02854 36 40 16
-0.53884 -0.436853 2.03391 68 70 48
-0.390627 -0.290837 2.03085 73 75 50
0.110829 -0.111481 1.83721 86 91 77
0.383973 -0.0677461 1.94829 40 31 2
0.36308 -0.0322133 1.87682 102 71 45
-0.414134 -0.0880748 2.18687 92 78 41
0.254794 -0.0609844 2.2818 120 102 88
-0.0132086 0.0002419 1.95069 69 78 65
-0.436933 -0.023516 2.1259 141 127 79
0.0181949 0.102344 2.12179 15 12 4
-0.446811 0.106699 2.09152 160 129 105
0.214347 0.191046 1.86907 119 75 47
0.0616305 0.2101 1.80804 67 60 46
0.105271 0.231582 1.78644 38 19 12
0.150432 0.224654 1.85651 140 116 106
0.142309 0.236721 1.85169 56 30 20
-0.139407 0.241933 1.79931 95 70 64
0.159689 0.262105 1.83777 92 65 56
-0.144764 0.26182 1.87473 42 12 5
0.160537 0.273866 1.87689 90 54 50
0.00269472 0.305458 1.73607 152 134 126
-0.405301 0.310116 1.58183 104 107 86
-0.277979 0.310875 2.00037 111 82 73
-0.0835494 0.543854 2.08583 118 98 95
0.160346 0.572726 2.14366 43 16 14
0.174257 0.621893 2.16441 114 83 78
-0.079329 0.616739 2.13675 47 14 8
0.0442221 0.696016 2.2355 138 102 97
-0.321361 -0.297549 2.07368 97 101 63
0.379324 -0.0657225 1.95198 37 28 6
0.291038 -0.0802358 2.26068 138 146 108
-0.319303 -0.0924585 2.35727 151 142 91
-0.461518 0.0726588 2.0804 124 98 70
-0.466519 0.0770889 2.1863 157 142 114
-0.426761 0.10996 2.09883 86 57 40
-0.135186 0.223021 1.80623 24 7 2
0.0693644 0.234198 1.78773 62 58 38
-0.13865 0.239428 1.81556 92 65 60
-0.0112511 0.281846 1.74476 133 107 95
-0.0121617 0.291937 1.81774 83 45 28
-0.189379 0.291273 1.84085 74 28 12
-0.120156 0.401568 1.95343 116 91 86
0.0356958 0.571034 2.09954 104 81 77
-0.100258 -0.291131 1.81892 92 99 49
-0.517059 -0.262041 2.34968 140 136 86
-0.57182 -0.2364 2.34468 52 46 12
-0.545751 -0.228511 2.34022 121 118 70
0.368308 -0.0613626 1.92664 40 34 10
-0.400212 -0.101455 2.21109 148 140 84
0.21209 -0.0333008 2.11526 137 117 98
0.255991 -0.0306483 2.1744 150 140 108
-0.428436 0.00175426 2.10288 118 108 56
-0.0832189 0.0493927 2.04505 124 120 108
0.195019 0.18952 1.89262 144 94 73
0.128473 0.27971 1.82191 76 36 29
-0.178924 0.400529 1.98627 38 5 0
-0.180557 0.545387 2.19968 108 80 73
0.124468 0.673478 2.22572 81 52 47
0.0651047 0.690182 2.22905 81 44 38
-0.108056 -0.277804 1.78957 92 98 49
-0.430123 -0.156793 2.25541 144 138 86
-0.405127 -0.111853 2.25866 131 124 74
0.274433 -0.0757191 2.22174 142 156 114
0.290708 -0.0453871 2.27115 151 141 109
0.177057 0.201593 1.90505 27 10 3
0.169287 0.266546 1.86588 163 136 128
-0.00853901 0.279133 1.77385 134 102 91
-0.210401 0.478183 2.14042 102 77 74
-0.183363 0.541668 2.1934 106 70 64
0.0990122 0.676208 2.21545 130 106 105
-0.43659 -0.330246 1.63312 59 69 22
-0.102087 -0.287872 1.82229 94 100 52
0.381798 -0.0737861 1.96786 47 41 13
0.294901 -0.0771438 2.19304 94 79 57
0.23434 0.177111 1.88591 142 96 78
0.0695325 0.685831 2.24446 68 32 32
0.477071 -0.358984 1.46744 73 82 52
0.456324 -0.355042 1.49517 100 108 66
0.434816 -0.336864 1.5056 148 148 109
-0.114511 0.184058 1.8814 80 65 55
0.186885 0.200963 1.87504 79 40 24
0.162674 0.232771 1.85727 52 19 4
0.0126338 0.345639 1.88073 28 6 2
0.0323219 0.574545 2.07629 122 94 92
-0.501384 0.511232 1.50226 122 108 96
-0.0745572 0.692956 2.25093 97 50 33
-0.00977136 0.69306 2.21014 143 110 106
0.295819 -0.879832 2.09907 82 87 32
0.459241 -0.358347 1.47884 154 156 116
0.451096 -0.342344 1.50783 44 46 20
0.230462 0.170953 1.84495 132 88 74
0.0646638 0.235627 1.7654 76 66 49
0.0288501 0.372862 1.62708 80 70 52
-0.075037 0.619538 2.13914 52 19 15
-0.566883 0.514041 1.52888 91 80 66
0.363114 -0.33007 1.62602 130 132 86
-0.514269 -0.258144 2.33763 108 105 56
-0.419465 -0.158439 2.25296 138 127 90
0.382785 -0.0654394 1.94698 56 45 15
0.379854 -0.0629877 1.92564 84 66 34
0.256696 -0.0662372 2.29161 118 99 84
0.165393 0.269679 1.84394 156 132 124
-0.0109201 0.292155 1.8196 76 38 24
-0.506454 0.492896 1.33611 81 74 50
-0.076159 0.618971 2.1459 51 16 13
-0.798123 -0.69929 2.05683 67 63 27
0.453607 -0.353876 1.4695 144 147 104
0.403981 -0.342688 1.58734 117 120 70
-0.401902 -0.103691 2.21286 150 140 90
0.123628 0.671519 2.21453 70 40 35
-0.0145527 0.292176 1.80927 106 66 50
0.192712 0.576559 2.23406 86 48 30
0.37811 -0.0665225 1.94988 42 36 9
0.0345359 0.627678 2.11866 92 56 56
-0.488616 0.497064 1.52897 78 74 44
0.402818 -0.0519121 1.96018 120 90 65
0.0053955 0.707336 2.20381 110 71 62
0.366652 -0.0861826 1.97531 133 138 102
0.156269 0.277695 1.82615 102 73 66
0.160675 0.278872 1.84422 108 79 72
0.157702 0.282494 1.8445 100 72 66
0.366956 -0.0866552 1.97185 110 113 80
0.0030871 0.691246 2.20945 81 42 32
0.0692423 0.258876 1.74751 120 96 81
-0.691517 0.0756372 1.9524 156 146 118
-0.62654 -0.554919 2.04232 86 84 45
0.206119 0.628808 2.24749 96 62 56
0.111992 0.667803 2.1988 119 90 86
-0.265063 -0.16826 2.02914 82 84 56
-0.423065 -0.159466 2.25964 142 133 90
0.0699163 0.275441 1.72128 123 104 86
-0.413008 -0.149448 2.01569 120 116 63
-0.0511236 0.678065 2.2061 105 70 60
-0.07113 0.608193 2.12526 103 66 62
0.146366 0.643989 2.24912 102 74 74
-0.200085 -0.702117 2.26076 110 114 72
-0.0739254 -0.153078 1.1907 108 106 57
0.159977 0.234412 1.84496 76 44 22
-0.118623 0.403432 1.95785 116 94 88
0.0281638 0.467324 1.98344 34 16 12
0.156883 0.214077 1.86945 55 30 18
-0.231747 0.402999 2.06723 25 6 4
0.249567 -0.0343294 2.10784 150 158 115
0.356287 -0.686239 1.88745 88 96 45
0.458918 -0.358856 1.4805 139 142 102
0.102089 -0.103671 1.81441 85 90 76
-0.325189 -0.16109 2.25597 101 102 55
-0.318187 -0.15415 2.23701 94 92 45
0.0250738 0.299367 1.79959 154 136 128
-0.2007 0.600363 2.24452 94 49 28
0.158969 0.630501 2.19745 77 48 44
-0.248533 -0.240565 2.09013 106 112 69
-0.211772 -0.207499 2.09609 106 111 60
-0.439126 -0.229235 2.29707 94 93 46
-0.318109 -0.155729 2.23859 106 105 56
-0.32279 -0.0928327 2.02945 110 110 60
0.0166011 0.105579 2.11527 14 12 4
-0.202757 0.599306 2.23989 102 60 37
0.456602 -0.355197 1.48914 64 72 34
-0.356671 -0.332717 2.07565 100 106 64
-0.252802 -0.230814 2.06191 98 104 62
-0.214106 -0.20025 2.07555 94 100 50
0.278082 0.0322012 1.99374 143 132 110
-0.207993 0.480496 2.13013 112 91 88
-0.182357 0.536924 2.1829 128 91 82
-0.202464 0.599704 2.23487 100 57 35
0.350812 -0.688873 1.88555 74 88 40
0.20355 -0.176071 1.75297 75 84 66
-0.251239 -0.23311 2.06612 116 122 78
-0.190382 -0.152292 1.99896 157 154 108
0.243934 0.0737142 1.93674 57 36 21
-0.32414 0.186244 1.65748 92 104 76
0.105118 0.235876 1.78707 70 46 36
0.147416 0.238791 1.81451 71 43 24
0.0882674 0.450851 1.98347 36 7 4
0.0101202 0.466095 1.98405 54 18 12
0.18399 0.648552 2.25692 82 54 48
-0.250704 -0.236019 2.07892 98 104 62
0.134927 -0.13568 1.79379 79 84 65
-0.216966 -0.20135 2.07519 85 90 46
-0.199592 -0.138523 1.94675 156 155 110
0.318732 -0.0805269 2.22641 71 62 36
0.288803 -0.0442575 2.16866 145 144 109
0.270553 0.0339312 1.97402 134 123 102
0.0213945 0.46087 1.99514 114 86 83
-0.300512 -0.212847 2.06594 86 87 64
-0.202259 -0.135641 1.9325 158 156 112
-0.427317 -0.162378 2.27754 148 140 90
0.324741 -0.0957353 2.25412 108 98 72
0.240612 0.0926848 1.87954 65 41 28
0.124707 0.234427 1.85862 120 90 74
0.142799 0.239336 1.85339 52 28 16
0.148477 0.271531 1.81726 119 92 86
-0.0123947 0.284549 1.77027 138 109 99
0.141711 0.564366 2.11297 78 47 46
0.0258318 0.698701 2.17915 94 58 51
-0.360164 -0.325645 2.05469 86 90 50
-0.071685 0.603592 2.14854 80 32 24
-0.042875 0.721054 2.39398 120 73 56
0.276298 0.0380074 2.04528 70 56 36
0.143119 -0.4963 1.89243 134 141 98
0.426729 -0.335102 1.51149 157 156 110
0.434737 -0.344502 1.53718 152 152 109
-0.0717555 -0.233428 2.06568 150 152 104
0.0730834 -0.143381 1.98893 140 144 109
0.395758 -0.0593918 1.92986 118 93 66
0.350287 0.00578027 1.8515 134 102 82
0.248359 -0.015204 2.01574 98 112 72
0.243444 -0.00852839 2.01592 95 106 70
0.295969 0.0831223 1.82802 106 69 54
0.348436 0.0419431 2.18426 60 35 18
0.32211 0.0773193 2.06164 52 22 4
0.308978 0.0878744 2.0516 152 120 96
0.292795 0.101165 2.01532 48 18 1
0.206192 0.15959 1.86315 122 86 69
0.240423 0.156748 1.95483 89 53 32
0.226842 0.178995 1.85845 90 46 30
0.2056 0.252037 1.8714 74 47 38
0.248346 0.262904 1.92353 89 64 53
-0.00824662 0.292333 1.82758 64 26 13
0.151582 0.438755 1.99615 44 19 15
0.146239 0.440663 1.9996 110 84 80
0.0584518 0.450101 1.59812 138 129 114
0.0213723 0.468301 1.97004 35 12 8
0.155417 0.493873 2.0411 108 80 77
0.132402 0.498359 2.01483 119 96 96
0.107018 0.519859 1.68854 109 90 78
0.124588 0.564727 2.0778 56 28 24
0.132676 0.569924 2.08543 122 98 94
0.473201 -0.358017 1.46244 76 84 52
-0.628144 -0.574473 2.08032 102 99 56
0.465543 -0.363102 1.5103 99 104 55
0.150788 -0.507953 1.91426 126 136 94
0.176925 -0.581086 2.10193 112 118 70
0.45449 -0.354703 1.55046 126 124 81
-0.281337 -0.273798 2.10157 112 116 74
-0.0658286 -0.23764 1.96608 152 152 107
-0.0677601 -0.241898 2.08474 152 154 104
-0.232584 -0.196726 2.07437 75 82 47
0.0552825 -0.129207 1.93421 144 148 112
-0.0823529 -0.0494147 1.6541 93 100 91
-0.309959 -0.154885 2.25715 140 142 98
0.334823 -0.0160636 1.88907 112 99 66
0.307414 -0.0722577 2.18016 59 55 26
0.260739 -0.05355 2.24469 136 108 87
0.211909 -0.0305283 2.16146 108 88 70
0.348928 0.0144185 2.11089 106 73 55
0.341184 0.0182396 2.11852 155 133 113
0.342802 0.0442 2.17215 60 35 18
0.326176 0.0651688 2.08653 38 12 0
0.344962 0.0677601 2.10416 66 29 5
0.307137 0.0940257 2.04927 48 19 2
0.220478 0.240491 1.86897 63 28 13
0.0813745 0.258932 1.74855 40 21 6
0.0625336 0.361153 1.58295 90 76 52
0.0861216 0.392699 1.60354 119 117 98
0.0555117 0.450366 1.59333 128 117 104
0.145669 0.485046 2.00929 86 55 52
-0.494255 0.426249 1.54663 92 99 78
0.146936 0.492678 2.01763 108 80 77
-0.208708 0.480804 2.12424 112 90 87
0.269944 0.530494 2.21194 116 97 88
0.035383 0.622842 2.1134 122 92 89
0.336419 -0.282583 1.61864 98 98 74
-0.110669 -0.107126 1.44088 94 94 89
-0.0755793 -0.227503 1.92814 156 156 111
0.390178 -0.0743689 1.92558 152 150 110
-0.145253 -0.0385709 1.82244 98 94 59
0.370287 -0.0313663 1.96657 162 150 118
0.269806 0.111188 1.96865 75 50 33
0.075703 0.232246 1.79205 84 72 55
0.247491 0.236734 1.93364 64 30 14
0.251919 0.263733 1.93993 82 58 46
0.121337 0.370982 1.69683 114 104 90
0.067964 0.382523 1.5681 137 130 117
0.155087 0.492716 2.03883 100 72 68
0.14099 0.501326 2.04494 109 88 88
0.0983522 0.526984 1.67125 71 42 28
0.121861 0.565764 2.08195 60 30 27
-0.499807 0.51539 1.56656 114 103 87
0.234465 -0.220974 1.68273 82 90 66
-0.219709 -0.194473 1.88498 148 151 101
0.137563 -0.136683 1.80268 81 84 70
-0.43793 -0.2276 2.29122 98 97 48
0.0776003 -0.149736 1.99828 145 151 112
0.343111 0.0216044 1.86214 127 84 61
0.338038 0.0216138 2.08917 95 65 44
0.324534 0.0276013 2.12257 59 38 15
0.347321 0.0434986 2.07558 150 142 116
0.246855 0.114422 1.90719 95 62 42
0.243821 0.149692 1.95042 179 144 127
0.0794966 0.231363 1.80414 84 72 55
0.217894 0.247236 1.88904 68 40 28
0.151437 0.286049 1.82822 143 113 105
0.0346804 0.465809 2.00295 34 16 16
0.192384 0.563648 2.17417 38 8 2
-0.152599 0.613482 2.21554 109 86 84
-0.0989876 -0.206568 1.8423 127 132 88
-0.284596 -0.268962 2.08086 118 124 80
0.0704718 -0.147631 1.97458 136 142 102
0.389703 -0.0527969 2.00765 60 45 18
0.30693 -0.0912193 2.20791 58 52 21
0.250998 -0.0516687 2.2283 133 107 84
0.320364 0.0566821 1.84613 132 95 82
0.29797 0.0662951 1.96601 150 139 116
0.342311 0.0632969 2.10635 58 24 6
0.150343 0.223547 1.85791 140 116 102
0.235848 0.264894 1.91338 74 50 38
0.150282 0.272192 1.80552 158 133 123
0.0315575 0.465409 1.98216 26 12 10
0.140898 0.501234 2.04732 109 88 88
0.0925246 0.528865 1.57321 90 50 29
0.21623 0.636045 2.29706 115 83 78
-0.500009 0.51071 1.52926 112 100 83
0.554196 -0.429566 1.64163 130 136 88
-0.515562 -0.463786 2.04244 90 91 47
-0.0504033 -0.279036 2.16943 158 162 110
0.0917291 -0.165931 2.04432 142 148 108
-0.247146 -0.0707567 1.98719 55 58 26
0.297573 -0.0469278 2.19961 144 150 110
0.196633 -0.0208847 2.16073 26 9 2
0.341376 0.0243934 2.09957 94 64 41
0.226004 0.156764 1.91218 154 119 101
0.151886 0.237465 1.83099 56 28 10
0.212947 0.241893 1.86787 58 28 14
0.0940525 0.267704 1.77537 158 135 128
0.144159 0.397354 1.9574 107 88 85
0.10173 0.493154 1.76316 86 60 48
0.0963607 0.525443 1.6693 84 61 48
0.109709 0.525271 1.65796 146 138 135
0.101345 -0.176052 2.06999 146 154 110
-0.614829 -0.230635 2.42434 90 68 26
-0.409266 -0.13012 2.26773 63 44 26
-0.12979 -0.0240049 1.97909 38 42 16
0.308556 -0.0535465 2.22592 146 156 114
0.129788 0.221954 1.8839 26 10 4
0.153601 0.223997 1.86503 138 114 102
0.158774 0.607203 2.0825 78 42 34
0.133785 0.637189 2.20274 80 42 40
0.113736 0.666752 2.18762 68 38 31
0.416636 -0.0970688 1.96927 105 104 66
0.257243 0.0166529 1.74768 92 84 55
0.247031 0.170901 2.01867 126 81 58
0.0804099 0.522627 1.62444 82 53 40
-0.649946 0.368017 0.507362 59 52 26
0.195781 -0.0194694 2.15055 68 52 40
0.241356 0.0590112 1.94502 129 108 90
-0.00871918 0.300641 1.72513 146 122 119
0.310656 0.0602926 1.99116 148 153 117
-0.438638 -0.231731 2.30492 109 108 58
-0.077342 -0.0534095 1.65271 90 98 88
-0.405473 -0.10618 2.22161 140 128 86
0.256685 -0.0630999 2.28927 132 114 102
-0.335209 0.105209 1.72168 92 95 69
-0.593596 0.112896 1.75334 74 77 50
0.268572 0.0736126 1.81385 114 71 54
-0.111593 0.0804861 2.04117 60 66 51
-0.734068 0.184907 1.69633 92 93 72
0.269027 0.160945 1.89745 80 52 34
-0.158613 0.200675 1.82152 46 34 31
-0.34762 0.227579 1.61495 106 108 76
-0.144693 0.215928 1.80523 44 20 8
0.220709 0.207257 1.88018 90 43 16
-0.281438 0.226025 1.96188 103 81 70
-0.411039 0.253623 1.63038 114 106 78
-0.278329 0.232453 1.92559 47 24 13
-0.1662 0.23999 1.79339 50 20 11
0.108019 0.252502 1.73926 46 18 8
0.221752 0.247423 1.8701 78 42 30
0.0698096 0.277265 1.72483 134 118 103
-0.29669 0.272193 1.9562 86 46 26
0.195402 0.261423 1.89361 50 22 14
0.0752874 0.286794 1.71989 155 138 125
0.161205 0.280135 1.84805 48 24 20
-0.402759 0.309833 1.5726 100 102 80
0.00689591 0.304437 1.73279 132 118 108
-0.403291 0.326484 1.60754 143 146 128
0.0104662 0.318533 1.69353 80 68 50
0.160608 0.321107 1.91334 114 95 93
0.267699 0.389192 2.1042 125 110 102
0.0181177 0.463556 1.97884 122 96 92
0.0215045 0.494537 2.00656 121 104 98
-0.0467445 0.50217 2.01501 93 49 42
0.0338233 0.57619 2.08239 118 93 90
0.230051 0.624088 2.26248 120 90 82
0.210273 0.627115 2.2468 73 40 36
0.195985 0.625864 2.22051 122 96 91
0.229463 0.640025 2.28663 79 51 45
0.15508 0.631568 2.19916 80 54 54
0.195612 0.640999 2.24814 80 60 58
0.0436831 0.641302 2.14935 120 98 96
-0.052066 0.66682 2.18612 127 88 78
0.0593145 0.689991 2.22343 100 64 57
-0.584234 -0.446149 2.02818 55 54 28
-0.0910419 -0.0915783 1.51608 96 100 95
-0.512665 -0.257838 2.33315 134 131 78
-0.397449 -0.118987 2.25414 102 86 50
-0.425986 -0.0755782 2.17437 132 116 77
0.306728 -0.0560203 2.09462 121 135 96
-0.356194 0.075803 1.84574 75 78 59
-0.0260158 0.03356 2.04371 94 99 93
-0.270948 0.0925019 1.72989 110 118 86
0.306435 0.137701 1.96052 110 84 58
0.262431 0.16252 1.87182 80 52 34
-0.127463 0.19373 1.85406 33 16 7
-0.347664 0.227503 1.61967 106 109 78
-0.177645 0.20345 1.88463 26 12 10
0.0618492 0.202663 1.82965 12 8 2
0.185183 0.206065 1.86912 100 52 22
-0.281188 0.227585 1.9001 94 71 60
0.303257 0.205874 2.00221 54 27 14
0.138132 0.222102 1.87225 50 27 15
-0.160707 0.238443 1.78834 102 72 60
0.347822 0.209952 2.11744 137 130 116
0.341377 0.221113 2.10546 94 82 69
-0.290182 0.27904 1.9802 122 96 87
0.146085 0.275141 1.81743 79 48 42
0.159678 0.281946 1.86117 140 110 108
-0.0017619 0.29504 1.73381 126 108 93
0.00846589 0.305368 1.74114 139 124 115
0.34371 0.296991 2.16883 81 70 54
0.162878 0.313142 1.91345 118 94 90
0.255476 0.404721 2.10246 42 23 16
-0.492406 0.425759 1.52662 88 92 67
0.017451 0.461233 1.97749 121 96 92
0.0105469 0.466373 1.98482 44 14 8
0.0252289 0.4677 1.9867 38 11 10
-0.0874258 0.533046 2.06405 123 96 88
-0.0648738 0.613436 2.14796 120 94 92
-0.0311365 0.685815 2.21058 102 54 42
-0.00318847 0.689518 2.22316 90 52 43
0.0553325 0.688817 2.21374 86 51 44
0.0406055 0.699039 2.21277 83 46 38
-0.137058 -0.503029 2.14886 100 108 63
-0.475109 -0.428925 2.03855 94 96 52
-0.0914624 -0.0907617 1.51653 94 98 93
-0.599732 -0.231112 2.40803 134 122 70
0.101851 -0.18184 2.08034 138 144 110
-0.23716 -0.147989 2.04802 80 82 53
-0.42189 -0.162184 2.26494 145 134 96
-0.425762 -0.06922 2.15313 134 118 76
0.305289 -0.0810274 2.18274 139 144 112
0.129077 -0.0878522 2.30506 162 142 103
-0.241875 0.0512338 1.73154 122 126 94
-0.025573 0.0296758 2.05854 96 100 95
-0.427417 0.0858232 1.94768 141 97 78
-0.447859 0.105446 2.10031 163 132 110
0.02005 0.10198 2.12408 17 14 6
0.265259 0.157321 1.96599 113 68 54
-0.178122 0.205603 1.87046 22 8 6
-0.354553 0.235836 1.6214 100 102 72
-0.145839 0.217093 1.80066 48 22 10
0.184583 0.20245 1.90789 38 10 2
-0.278024 0.228322 1.96148 43 16 6
0.064765 0.23565 1.7625 78 71 56
0.136743 0.231573 1.86987 118 86 66
-0.374817 0.268207 1.59851 97 102 76
0.149043 0.237387 1.85357 44 22 12
0.218982 0.238976 1.87254 62 25 12
-0.378831 0.27427 1.59391 100 101 74
0.0703545 0.257908 1.75808 134 116 98
-0.129939 0.26502 1.84449 44 18 7
-0.282005 0.27583 1.94825 79 34 18
-0.290151 0.278161 1.97547 122 95 85
0.0697705 0.284805 1.69053 152 131 121
0.00458225 0.307367 1.73003 141 124 116
0.349529 0.294084 2.19353 77 64 48
0.00842588 0.318482 1.68531 78 63 46
0.353819 0.304941 2.21315 123 110 94
0.164599 0.319069 1.89655 34 13 9
-0.460133 0.341972 1.58263 124 114 94
-0.00609497 0.343776 1.8669 28 8 4
0.317412 0.371528 2.19704 50 29 16
0.0114353 0.379859 1.9404 115 90 87
-0.462904 0.385306 1.55001 82 87 58
0.267259 0.390339 2.10565 118 104 97
-0.119572 0.401894 1.94848 116 89 84
0.267116 0.399422 2.1179 122 108 102
0.0282545 0.466244 1.99761 38 17 16
-0.100772 0.482097 2.01552 110 66 57
-0.0913158 0.55018 2.09056 56 12 4
-0.498064 0.508554 1.50519 98 86 66
-0.0751438 0.616918 2.13385 49 17 12
0.118687 0.672285 2.21074 81 54 53
-0.0747108 0.69096 2.24051 104 58 38
-0.64436 -0.546223 2.03657 96 91 72
0.363764 -0.0882013 1.97049 130 142 103
0.0434398 -0.0493814 1.88511 96 99 83
0.0754018 -0.0439002 1.95125 164 162 119
0.296782 -0.0637103 2.1443 52 52 20
0.316564 0.0562606 1.82536 106 70 55
0.29284 0.0863413 1.8408 114 78 64
-0.308346 0.189711 1.63148 20 18 8
0.254278 0.15232 1.84514 121 90 73
-0.111731 0.194037 1.86511 94 74 62
-0.352504 0.224521 1.6668 110 112 80
-0.176033 0.207309 1.88682 14 4 0
-0.119343 0.208543 1.84478 15 4 0
-0.285944 0.227918 1.92856 94 76 64
0.13596 0.223566 1.86921 48 25 14
0.340782 0.210791 2.09657 142 134 120
0.145807 0.236917 1.84961 52 29 16
-0.0081907 0.269661 1.79477 108 88 70
0.191737 0.264214 1.87733 52 23 16
-0.280675 0.27686 1.93519 68 26 14
-0.246392 0.279848 1.90708 116 63 36
0.137839 0.277488 1.81511 70 30 24
0.16175 0.280739 1.85403 92 66 62
-0.405496 0.311274 1.57856 104 104 82
