ply
format ascii 1.0
element vertex 1318
property float x
property float y
property float z
property uchar red
property uchar green
property uchar blue
end_header
1.15545 -0.180001 4.41783 170 124 112
1.0186 -0.199024 4.74993 152 108 84
-0.651868 -0.120457 4.9939 104 63 34
-0.710442 -0.126813 5.1489 132 90 66
1.41958 -0.136061 4.34065 142 74 43
-1.5448 -0.0876981 5.16488 180 126 96
-0.214881 -0.129162 5.11225 86 68 45
1.04699 -0.146342 4.77203 112 75 48
1.02321 -0.137295 4.75791 67 33 18
1.23654 -0.119847 4.38774 82 69 70
1.10351 -0.114731 4.81661 12 10 5
-0.708049 -0.0472552 4.88127 124 78 53
-0.635797 -0.0512064 4.9443 144 92 64
1.36069 -0.0522944 4.42175 134 76 52
-1.21296 -0.00247757 5.0345 98 52 28
1.13564 -0.0376874 4.4525 162 132 117
1.1841 -0.0291387 4.41838 65 58 58
1.32996 -0.0373073 4.44151 133 82 62
-1.4266 0.0581032 4.76071 86 44 24
1.19959 -0.00692437 4.87078 40 22 6
-1.03224 0.0541239 4.79305 78 28 9
1.39691 0.0296827 4.42201 86 41 28
0.926887 0.067175 4.95537 43 14 6
-1.43304 0.121836 5.26557 160 139 123
-0.903458 0.121852 4.8174 61 18 4
0.960454 0.0932712 5.00178 142 116 100
-1.34569 0.13729 5.17013 64 24 6
0.925904 0.103863 5.0056 77 52 34
1.25723 0.0969511 4.48106 124 98 85
-0.943377 0.143631 4.81834 95 46 32
1.14116 0.134376 4.49815 212 179 154
1.4907 0.126941 4.59547 40 14 3
-0.784376 0.178598 5.44963 149 131 107
0.893412 0.179272 4.92733 148 94 64
1.18665 0.174746 4.60892 122 89 69
1.16571 0.179296 4.71865 154 104 82
1.08732 0.176494 4.53018 76 35 17
1.44384 0.180396 4.55102 28 16 8
0.975852 0.199129 4.98236 136 107 91
1.15977 0.195493 4.62611 43 20 6
1.52392 0.19606 4.54008 185 156 136
1.18808 0.202766 4.558 118 89 73
1.23047 0.210929 4.47986 168 146 136
1.25204 0.227851 4.56263 172 149 135
-1.59456 0.261967 4.60211 160 130 93
1.47951 0.224054 4.45742 184 156 140
1.56223 0.215084 4.54811 173 152 136
1.72936 0.225047 4.62163 68 30 12
1.51671 0.244092 4.53804 26 15 11
1.51166 0.243622 4.45189 28 20 12
1.09646 0.26864 4.82311 82 69 51
1.14775 0.286621 4.74283 94 75 59
1.24663 0.289506 4.66696 158 126 106
-1.47305 0.340144 4.5983 126 28 10
0.894234 0.367308 5.08239 106 76 56
0.205904 0.385645 4.57476 124 61 44
1.21596 0.386765 4.56364 105 60 38
0.233555 0.401069 4.65874 134 88 73
0.881671 0.432138 5.00035 93 72 54
0.964277 0.394993 4.51347 210 170 147
0.897264 0.443195 4.85659 206 109 98
1.18153 0.456133 4.50455 176 136 116
1.26469 0.45862 4.48956 176 130 109
1.40844 0.462926 4.42787 131 96 81
1.01256 0.49331 4.59403 126 86 72
1.43275 0.502303 4.44597 206 176 161
1.6522 0.519354 4.54867 182 156 144
-0.180438 0.502021 4.42245 38 6 2
1.63154 0.52659 4.49454 92 60 44
1.6354 0.5407 4.55639 52 30 20
-0.742656 0.63246 5.34421 75 28 12
1.57193 0.574565 4.52737 178 152 134
0.224761 0.570368 4.46457 112 95 84
1.71469 0.607455 4.66587 40 23 10
1.24598 0.598399 4.56373 102 104 95
-0.323237 0.615595 4.68387 156 128 113
-0.367415 0.629636 4.74263 159 126 114
1.50189 0.640694 4.55369 214 188 171
1.46158 0.647922 4.53973 44 28 22
-1.38891 0.701686 5.14604 182 130 100
0.349818 0.631685 4.47911 151 134 128
-0.315256 0.685597 4.82495 81 54 47
-0.268478 0.637702 4.50565 104 79 70
-0.315621 0.681258 4.68237 150 126 115
-1.59276 0.663273 4.62378 106 32 22
0.037532 0.658626 4.43683 192 168 162
0.184705 0.656389 4.34907 153 116 104
0.044301 0.668913 4.38605 200 181 175
-1.6216 0.825304 4.77731 148 104 87
-0.178704 0.885565 4.66005 72 20 14
1.20964 -1.11342 4.26342 198 150 124
1.18892 -1.07978 4.24547 154 96 66
1.1681 -0.956209 4.20525 120 22 14
1.26659 -0.977808 4.23513 22 10 5
0.879657 -1.03616 4.6891 94 72 31
1.30801 -0.919349 4.2127 44 35 23
0.766138 -0.757282 4.44297 136 110 80
0.747881 -0.757746 4.4842 135 113 92
1.15582 -0.60267 3.95566 216 191 179
1.10142 -0.603844 4.00545 108 86 79
1.17571 -0.624215 4.05782 205 186 184
1.4681 -0.601848 3.96904 147 120 103
0.824979 -0.622596 4.30283 123 84 64
1.3204 -0.565453 3.9467 160 136 129
1.34455 -0.551345 3.93804 142 98 77
1.36079 -0.54597 3.99652 130 93 80
1.11494 -0.504076 4.00754 106 92 85
1.19602 -0.525802 4.0894 195 176 176
1.35125 -0.512424 3.97001 154 136 128
1.39294 -0.504855 3.95403 124 110 99
-0.672936 -0.582164 5.18256 49 24 8
1.37957 -0.488374 4.0528 106 104 90
1.4327 -0.472278 4.02864 102 102 90
0.87599 -0.497103 4.38703 150 118 104
1.06619 -0.461149 4.12366 96 73 63
1.09561 -0.472182 4.21031 94 70 63
-1.37117 -0.447796 4.92111 90 48 33
-0.629363 -0.520639 5.10097 104 32 14
1.49187 -0.457006 4.0757 130 98 74
1.44302 -0.447376 4.07687 150 132 119
1.4014 -0.427237 3.97781 158 136 124
1.08537 -0.471951 4.90427 152 134 88
-0.605584 -0.411754 5.10376 147 136 90
-0.232509 -0.433637 5.12889 90 76 34
-0.349124 -0.413583 5.13048 140 92 74
-1.47164 -0.319062 4.91796 118 78 61
0.999677 -0.391159 4.77618 130 118 74
1.71893 -0.414899 4.71122 72 40 21
0.993489 -0.347084 4.76949 148 140 94
1.1697 -0.298023 4.34341 119 38 32
1.22054 -0.320787 4.55207 170 135 127
1.41506 -0.326778 4.58867 156 134 122
-1.32096 -0.229915 5.10948 190 132 103
1.27105 -0.244256 4.33857 214 162 138
1.39733 -0.265733 4.5006 160 110 90
-0.739645 -0.283913 5.53738 92 58 24
1.11809 -0.26671 4.76709 62 31 12
1.56753 -0.223991 4.40383 117 89 52
-0.858093 -0.23786 5.64242 161 148 122
0.920558 -0.211887 4.65565 122 86 70
-0.897271 -0.211644 5.43699 94 58 28
-0.606114 -0.186375 5.04643 134 85 58
-0.788706 -0.214821 5.56143 66 26 8
1.15999 -0.188775 4.44887 166 130 116
1.21276 -0.175094 4.34994 170 84 57
-0.623017 -0.156312 5.09197 118 72 44
1.1769 -0.161673 4.3931 158 70 44
-0.746995 -0.140837 5.31977 62 20 6
-0.705454 -0.12471 5.115 134 92 67
1.1512 -0.127201 4.36417 128 126 126
1.4816 -0.136792 4.3366 92 76 64
1.00607 -0.134564 4.72655 82 46 29
1.24322 -0.123564 4.41426 48 36 38
-0.233698 -0.105329 5.09506 97 68 44
0.945494 -0.118667 4.9129 116 92 70
-0.661382 -0.0408997 4.93413 77 30 12
1.15064 -0.0906058 4.8996 157 148 126
-0.713262 0.00527866 4.85332 132 85 66
1.3021 -0.0536717 5.07374 74 58 30
1.45591 -0.0184746 4.43849 172 150 135
1.23539 -0.0341665 5.07369 159 148 124
0.92284 0.0172202 4.27755 44 25 5
-0.679349 0.0478394 4.84733 82 32 16
1.45003 0.0368623 4.51119 184 151 134
-1.39429 0.104824 5.10921 30 8 2
1.14526 0.0747631 4.52058 169 126 101
-0.926977 0.121253 4.93553 58 16 6
1.2563 0.098392 4.4906 134 108 96
1.33885 0.0995918 4.4894 98 50 32
1.50541 0.0954611 4.42184 104 88 69
0.93994 0.107043 5.04741 66 44 26
-0.633491 0.152708 5.27353 182 132 108
1.17575 0.137945 4.58918 190 151 122
-1.43589 0.20639 4.65655 102 23 14
0.981835 0.179052 4.97867 96 58 30
1.17916 0.177281 4.59822 118 87 68
1.11826 0.187584 4.67955 30 20 11
1.21142 0.18414 4.50994 185 158 140
-1.19763 0.238983 5.33368 166 118 94
0.984811 0.203494 5.01368 135 108 92
1.19511 0.201147 4.5948 118 87 72
1.13876 0.21297 4.65027 158 132 120
1.50451 0.201641 4.45813 64 38 27
1.91009 0.207972 4.81393 151 126 102
1.23853 0.219437 4.53148 158 134 120
1.14352 0.23703 4.72735 20 15 12
-1.48613 0.339789 4.6411 133 28 11
1.23647 0.331818 4.59125 184 146 125
-1.56325 0.372505 4.62606 161 136 104
0.234748 0.39347 4.70694 136 66 52
1.05776 0.408473 4.73965 212 175 155
0.871209 0.438078 4.98539 92 72 52
1.15915 0.452439 4.46977 188 146 129
1.71082 0.478108 4.74158 192 176 171
1.67367 0.483008 4.56239 137 82 64
-0.477415 0.589897 5.39848 198 150 127
1.6414 0.514108 4.54046 173 149 136
-0.174892 0.510834 4.50121 54 9 6
1.47915 0.537164 4.53543 150 115 99
1.48799 0.535397 4.45673 190 160 142
1.54419 0.574314 4.50164 180 150 130
1.68362 0.600901 4.61599 41 25 11
-1.39699 0.664274 5.28001 182 132 106
1.66971 0.619579 4.62185 182 156 142
-0.310588 0.643162 4.78218 160 131 120
-0.270904 0.61295 4.5053 92 66 58
-0.0992827 0.597162 4.34442 103 66 52
-0.268626 0.639665 4.52327 110 85 76
-0.166413 0.645465 4.4517 147 66 62
-0.309514 0.697414 4.78592 160 132 122
0.343635 0.677375 4.56658 146 130 118
1.44778 0.693741 4.57621 144 115 106
0.0297668 0.648158 4.3829 178 152 145
0.0401572 0.665667 4.38148 154 135 130
0.133441 0.712984 4.37321 146 114 109
1.14505 -1.04531 4.25211 151 145 104
1.26582 -1.06294 4.2779 90 44 20
1.22743 -0.966749 4.2288 29 15 8
1.30102 -0.919359 4.20251 80 64 48
1.69017 -0.984358 4.49789 110 88 53
1.12609 -0.710534 4.04289 15 10 7
0.73544 -0.738571 4.36687 148 124 100
0.802509 -0.728517 4.31315 136 112 88
0.832886 -0.710696 4.29039 90 16 5
0.748001 -0.756023 4.53066 100 72 38
1.06408 -0.620515 4.04597 208 187 176
1.08814 -0.6208 4.04114 232 214 209
1.19199 -0.61937 4.12885 68 52 48
1.32263 -0.566528 3.95587 162 139 132
1.51011 -0.592926 4.06244 120 78 50
0.80065 -0.620118 4.44736 86 84 70
1.11314 -0.557993 4.06087 90 68 65
1.37068 -0.5476 4.01006 125 88 72
0.8078 -0.593748 4.455 84 72 61
-0.664357 -0.633619 5.13825 53 26 8
1.44711 -0.522841 4.03919 132 119 109
0.858594 -0.533087 4.30382 128 12 10
1.0587 -0.493825 4.07872 94 70 62
0.785754 -0.504691 4.3089 159 132 120
1.35046 -0.479236 4.00827 110 105 92
-1.23939 -0.528282 5.08767 34 20 4
1.11159 -0.472655 4.08797 92 73 65
1.41875 -0.480826 4.04914 134 126 106
1.43519 -0.478545 4.03471 104 108 94
-1.46762 -0.466229 4.94239 139 94 70
1.18799 -0.453347 4.05137 127 111 107
1.45291 -0.449214 4.08625 156 138 126
-0.253833 -0.491776 5.17102 145 134 94
-1.22426 -0.391124 4.96033 103 42 24
-1.52522 -0.385662 5.07895 150 107 82
1.0755 -0.458683 4.93829 142 118 76
-1.38418 -0.340907 4.9506 56 18 8
1.0025 -0.382987 4.70244 174 128 98
1.67827 -0.40614 4.64516 72 40 21
-1.21423 -0.334005 5.20356 46 12 2
1.16447 -0.398612 4.89167 135 101 71
1.02928 -0.361069 4.86467 146 142 94
1.65414 -0.354034 4.64378 147 125 92
1.1889 -0.311017 4.50835 159 130 122
1.13395 -0.271427 4.35056 202 132 108
1.31837 -0.295467 4.48806 137 100 89
1.17187 -0.286287 4.64929 108 109 71
-0.701028 -0.307224 5.5983 124 88 54
-1.58105 -0.196983 5.16117 98 72 46
1.17691 -0.238513 4.57121 152 125 114
1.4565 -0.223143 4.36093 150 118 92
0.903621 -0.221742 4.68877 86 64 52
1.57987 -0.225001 4.43511 121 92 55
-0.608671 -0.188076 5.01439 155 105 76
-0.804883 -0.233242 5.83449 68 29 14
-0.577969 -0.175112 5.05586 142 91 66
1.01141 -0.194837 4.73916 147 100 76
1.46688 -0.174597 4.29709 180 154 129
1.20331 -0.165383 4.4294 156 73 44
1.00399 -0.195608 5.04232 116 85 68
1.33685 -0.153218 4.37264 56 28 18
-0.655689 -0.122364 5.05047 100 58 28
1.15633 -0.127606 4.8926 68 74 65
1.59334 -0.119079 4.48789 177 152 132
0.960787 -0.111183 4.83727 134 98 74
-1.01194 -0.00154929 4.7534 212 154 116
1.35322 -0.0378746 4.39963 150 89 62
-0.713816 0.0125414 4.84643 112 63 45
-1.45464 0.0482474 5.16199 131 84 69
1.35339 0.0086685 4.39841 62 25 15
0.997113 0.0215232 4.8272 122 85 61
-1.17525 0.0878713 4.81418 146 94 67
1.3981 0.0400391 4.40655 188 159 141
-0.91031 0.0907489 4.78415 66 24 10
1.33762 0.0508448 4.42299 49 22 12
-1.47084 0.11607 5.21143 86 47 25
-0.968715 0.109339 4.785 66 22 10
0.945312 0.0713414 4.90297 47 26 8
1.12885 0.0728472 4.47802 173 132 108
1.36542 0.068206 4.43027 166 138 121
-1.40453 0.122113 5.10002 158 138 122
-0.908882 0.118076 4.78229 54 13 4
0.906843 0.0940422 4.90675 172 144 126
0.97878 0.102425 4.85046 32 14 10
-0.639398 0.148718 5.18209 174 124 100
0.941561 0.122302 4.94094 21 14 10
-0.795794 0.170347 5.55801 148 132 107
0.963772 0.14266 4.94104 130 102 72
1.14832 0.138723 4.5317 186 150 122
1.39646 0.130823 4.58707 130 84 64
0.924636 0.148961 5.17572 114 82 54
-1.45387 0.204487 4.64922 118 48 40
-1.41558 0.20674 4.57896 152 109 92
1.09548 0.19578 4.64381 32 22 18
1.43694 0.186672 4.57997 16 10 9
1.1146 0.212081 4.60505 132 108 96
1.46678 0.206313 4.46303 66 42 28
-1.39196 0.252899 4.66241 118 43 34
1.78658 0.229537 4.71595 58 24 8
1.51457 0.248997 4.53549 31 18 11
1.81039 0.250265 4.71757 144 94 65
1.08722 0.270428 4.8075 86 72 54
1.14257 0.285865 4.74163 94 75 59
1.46886 0.298041 4.56261 164 141 130
1.84618 0.302499 4.83539 36 16 7
1.25279 0.342185 4.70397 110 65 40
1.40172 0.46074 4.4223 144 107 94
1.28915 0.483572 4.53752 110 62 38
1.48685 0.478276 4.47312 160 104 88
1.63327 0.517452 4.69891 156 80 58
1.56749 0.505511 4.53022 159 138 132
1.6211 0.504188 4.51552 170 147 134
-0.183097 0.503618 4.43666 64 14 8
1.54182 0.550851 4.55606 190 161 142
1.59158 0.563726 4.5338 30 16 10
-1.0331 0.62436 5.12022 189 133 99
1.47491 0.571323 4.48702 84 54 44
1.52185 0.578929 4.47536 176 148 125
1.62374 0.591102 4.51745 64 47 32
0.201306 0.564974 4.38369 108 93 82
1.23378 0.599764 4.55151 91 104 93
-0.322221 0.609225 4.64945 160 130 118
-0.371755 0.633828 4.7646 158 128 116
1.4513 0.626047 4.47857 211 187 170
1.44118 0.692792 4.56089 139 110 100
0.357801 0.685246 4.54372 110 90 80
0.00261182 0.684889 4.41432 150 82 75
-0.141264 0.694932 4.41721 167 152 145
0.136828 0.716731 4.38979 148 114 109
-0.118952 0.936684 4.70712 134 106 98
-0.157173 0.965878 4.67409 92 62 52
1.27371 -1.07642 4.31492 92 46 20
1.22401 -1.03262 4.19226 96 55 28
1.30903 -1.05619 4.30105 148 136 88
1.21449 -1.02185 4.39691 110 16 7
0.898033 -1.05455 4.7691 122 104 58
0.885489 -0.826739 4.53966 150 130 108
1.0695 -0.587895 4.0279 74 52 44
0.777641 -0.610973 4.39554 86 82 70
1.33952 -0.508467 3.97315 160 141 134
-1.27435 -0.569055 5.31601 40 25 8
-1.44549 -0.487425 4.98516 81 46 32
1.30832 -0.474003 4.07113 138 71 66
1.20201 -0.458778 4.07612 126 110 106
1.64603 -0.452728 4.63297 32 26 21
1.12988 -0.438152 4.78282 98 42 15
1.08246 -0.43479 4.87025 86 43 16
1.65596 -0.403386 4.62351 47 23 10
1.11608 -0.38835 4.77855 112 74 44
1.17688 -0.303438 4.37522 144 67 56
1.64897 -0.357516 4.6351 140 115 82
1.37801 -0.321958 4.52696 152 136 124
-0.198528 -0.287433 5.04596 122 112 72
1.12998 -0.306024 4.80481 80 43 20
-0.694201 -0.288977 5.40396 124 90 55
1.09251 -0.242752 4.31068 128 15 8
-0.742747 -0.260037 5.38082 96 62 28
-0.320402 -0.237515 5.05056 128 81 62
1.19416 -0.249009 4.67482 123 108 82
1.51587 -0.215524 4.33898 138 116 76
-0.855165 -0.238219 5.598 161 148 124
1.33446 -0.206539 4.37958 88 47 30
-0.895374 -0.211646 5.47393 90 55 23
-0.60214 -0.182672 5.01664 136 86 60
-0.793163 -0.196488 5.49293 72 34 16
-1.02378 -0.154889 5.33239 126 89 62
-0.701968 -0.144765 5.19683 146 100 73
1.00251 -0.194653 5.05247 108 79 60
1.04754 -0.159943 4.81791 134 90 67
1.15155 -0.138396 4.45751 66 47 42
-0.23118 -0.128291 5.05711 90 61 36
-0.232526 -0.107707 5.15545 98 64 38
0.989148 -0.0939461 4.76457 48 12 2
-1.41615 -0.0259245 4.96658 106 60 41
1.45352 -0.0657417 4.37861 142 105 88
1.16722 -0.0531829 4.48718 50 34 26
1.11128 -0.0681769 5.07136 154 121 102
1.27081 -0.0396241 4.41037 10 6 10
1.40314 -0.03458 4.4153 180 142 120
-0.603246 0.00993102 4.92233 142 92 72
1.432 -0.02413 4.41301 171 146 132
1.2147 -0.0315649 5.05636 162 151 128
1.12874 -0.0150318 5.04542 83 49 28
-1.51167 0.0630918 5.17626 161 142 122
1.50198 0.0149467 4.49778 88 54 33
-1.02583 0.0767242 4.82052 78 28 16
-0.629423 0.0759048 4.96077 80 32 17
0.957109 0.0655063 5.06661 122 102 82
0.920037 0.0685566 4.84115 110 82 60
1.37797 0.0664746 4.44108 173 144 122
0.900803 0.0916698 4.91318 146 123 102
-0.751471 0.133146 5.13134 104 61 45
0.963504 0.139832 4.94079 130 102 72
1.1677 0.13679 5.15945 135 106 86
0.914324 0.176732 5.02112 146 92 62
1.45764 0.177931 4.63248 20 11 10
0.870471 0.216452 4.96653 102 70 34
1.28887 0.203646 4.56047 138 114 102
1.28529 0.241005 4.62168 42 32 28
1.84903 0.234131 4.70473 131 90 62
-1.41656 0.28059 4.76641 115 26 18
0.85549 0.276942 4.88802 162 138 122
-1.38124 0.296406 4.59477 122 17 13
0.210547 0.393483 4.63569 135 36 28
1.04472 0.461218 4.66713 175 146 136
1.6662 0.487477 4.55212 140 92 74
1.53886 0.493937 4.4941 166 146 138
1.61673 0.524961 4.47767 120 90 75
1.45504 0.530842 4.4224 192 162 142
1.49003 0.577091 4.51371 77 48 42
-0.529635 0.655977 5.27332 220 168 132
-0.492565 0.654466 5.25633 206 154 118
1.64909 0.594163 4.5625 114 94 80
-0.374709 0.624682 4.71435 160 124 109
1.13366 0.616985 4.54077 138 19 22
1.45384 0.648555 4.52941 51 33 28
-1.02747 0.683261 4.978 69 24 17
-0.338623 0.688501 4.87118 164 143 136
0.0323336 0.625733 4.36191 98 72 58
0.353975 0.666291 4.58011 96 75 66
-0.15702 0.729639 4.73963 159 131 122
-0.0980695 0.700417 4.54241 66 51 45
-0.181753 0.901651 4.66786 64 26 18
-0.128135 0.890649 4.61371 142 124 120
0.0267334 0.905613 4.61752 46 16 14
-0.192908 0.922957 4.66288 90 55 46
-0.121305 0.931 4.69833 149 122 114
1.29268 -0.999837 4.31669 22 14 10
0.93495 -1.081 4.86303 107 82 39
1.15385 -0.723316 4.08184 14 10 8
0.740596 -0.734989 4.36403 146 122 100
0.799281 -0.688351 4.20347 97 12 7
0.753784 -0.674132 4.26736 96 56 27
0.859484 -0.6778 4.25474 113 6 8
1.05575 -0.606023 3.98758 181 165 162
0.942335 -0.587866 3.98619 113 68 42
0.983451 -0.579327 3.99236 168 142 134
0.872465 -0.597029 4.16269 160 128 118
0.859865 -0.578599 4.19049 102 54 28
-0.660279 -0.639977 5.05763 65 43 18
-0.534239 -0.631426 5.02672 160 102 82
0.803204 -0.51141 4.17784 128 32 30
-0.463041 -0.554102 5.12494 140 91 70
1.06149 -0.462599 4.14069 119 97 88
1.40224 -0.435505 4.09334 164 146 137
-1.22795 -0.394001 4.98438 101 39 22
1.48883 -0.441654 4.63094 72 36 14
-1.17418 -0.365581 5.07997 148 134 90
-0.364716 -0.358935 5.04254 45 14 8
1.31487 -0.315716 4.46 158 135 128
1.40271 -0.268562 4.50388 153 103 82
1.1643 -0.269104 4.82475 89 62 27
-1.58747 -0.18364 5.17336 98 70 46
1.14186 -0.198886 4.43706 164 129 113
1.2153 -0.182777 4.36869 168 74 50
-0.210979 -0.170061 5.1112 164 148 124
1.01298 -0.205878 5.22791 125 112 79
1.01596 -0.161091 4.7727 160 122 101
1.00231 -0.138364 4.90382 160 130 114
-0.668428 -0.0523967 5.0789 73 28 12
-0.622773 -0.0373383 4.9436 156 106 80
-0.743145 -0.0266349 5.09074 94 50 28
-0.422524 -0.0389842 5.11139 88 40 26
0.971175 -0.0620069 4.9003 132 90 68
1.03245 -0.0640455 4.9065 152 120 100
1.37344 -0.047813 4.43371 154 90 64
-1.51823 0.0630022 5.18315 168 144 124
1.53161 0.0127219 4.53645 98 68 46
-0.997941 0.0859672 4.82441 188 130 108
-0.95414 0.0919634 4.71745 60 18 8
-1.46099 0.113945 5.16853 94 54 31
0.883439 0.0748904 4.77032 52 34 20
-1.49009 0.123225 5.49779 156 136 116
-1.34428 0.125211 5.07634 66 26 13
1.02274 0.100429 4.90845 77 58 41
1.53322 0.0943021 4.51229 45 31 17
-1.11005 0.162477 4.94955 168 106 87
-0.629167 0.15136 5.18025 180 130 106
1.14865 0.134788 4.5254 192 158 131
1.47694 0.176221 4.67336 24 12 6
-1.15258 0.228946 4.89518 172 122 98
1.10934 0.197554 4.66921 28 20 18
1.20535 0.194844 4.64517 116 86 70
0.963918 0.216817 4.92826 142 110 90
-1.43194 0.337195 4.64401 132 16 18
0.232231 0.400125 4.74822 134 32 24
1.17665 0.384604 4.59374 154 124 113
-0.204173 0.437824 4.42762 26 8 4
-1.02965 0.610379 5.0298 139 84 55
1.5682 0.582125 4.63345 180 152 138
1.32612 0.59052 4.48618 181 134 127
-1.44987 0.689805 5.22789 98 62 27
0.357894 0.632916 4.59242 136 116 102
-1.05396 0.701414 5.14393 65 25 16
1.48893 0.656588 4.57653 56 43 36
1.53279 0.732255 4.70038 172 149 140
-0.194991 0.705423 4.44557 156 75 70
-1.24174 -0.503176 4.93066 116 79 60
-1.26174 -0.518479 5.04888 118 86 64
-1.19474 -0.327964 5.08919 46 10 1
1.07717 -0.266442 4.7946 120 46 36
1.12512 -0.156729 4.82994 80 99 84
1.49195 -0.133181 4.34409 48 35 26
1.48456 -0.120589 4.34479 149 128 112
1.40846 -0.0970479 4.369 142 73 34
0.931662 0.0672985 4.90258 137 112 98
0.987937 0.0841627 4.86788 146 116 99
0.935128 0.0885586 4.90171 117 96 82
1.25165 0.195196 4.53226 41 24 15
1.25159 0.212704 4.51123 172 151 136
1.13919 0.224381 4.65603 160 134 118
1.51582 0.225615 4.53069 171 148 128
1.57257 0.260355 4.54345 38 25 12
0.225323 0.394899 4.6232 134 93 72
1.01697 0.404885 4.64824 212 169 150
1.76155 0.430296 4.61745 130 102 89
1.26959 0.494427 4.49781 166 124 108
1.48714 0.50013 4.46399 156 92 74
0.947036 0.56639 4.79143 117 104 94
1.12007 0.599597 4.64852 156 104 102
1.68069 0.596116 4.59328 67 48 33
0.238752 0.618737 4.47425 149 132 120
0.302203 0.622522 4.48966 118 102 90
-0.164183 0.644932 4.43141 198 154 148
1.17609 0.735355 4.89532 220 200 194
0.0281321 0.701543 4.42919 168 148 142
1.76834 -0.986601 4.40198 100 78 44
0.880658 -0.492478 4.21155 126 94 86
-1.24062 -0.507011 5.048 132 92 72
1.45506 -0.473826 4.06062 98 96 84
1.49295 -0.461214 4.0752 116 85 66
1.46382 -0.440047 4.05383 166 143 130
-1.41058 -0.422429 4.93645 68 40 31
1.1942 -0.330544 4.60174 136 121 106
-0.198302 -0.297254 5.04592 75 53 20
1.18008 -0.305063 4.90035 144 131 93
1.08523 -0.271386 4.81128 126 44 34
-1.51579 -0.181395 5.14853 106 61 48
-0.609224 -0.185109 5.04433 132 83 53
1.46885 -0.138501 4.33299 96 72 56
-0.637856 -0.0534558 4.89868 136 88 56
0.946834 -0.0863653 4.72922 50 12 2
1.47593 -0.0802279 4.40912 124 85 66
0.917646 -0.0635898 4.82505 118 88 64
1.17941 -0.0355777 4.46747 22 13 14
-0.990127 0.0681712 4.77139 127 72 54
-0.633728 0.0823457 4.95957 80 32 16
0.908713 0.0689304 4.92035 42 19 6
1.11229 0.177849 4.58665 73 28 14
-1.51396 0.233775 4.65504 114 44 14
1.24721 0.195425 4.52409 41 24 15
1.44241 0.194506 4.60072 26 16 8
1.12351 0.203496 4.53182 96 70 56
1.24374 0.21295 4.5714 48 22 7
1.28906 0.221164 4.56219 54 39 28
1.11583 0.24199 4.67941 34 24 15
1.56549 0.531336 4.50708 32 12 8
1.55848 0.54523 4.49428 68 48 44
0.209403 0.555316 4.44801 156 128 116
-1.40391 0.674992 5.34166 184 134 110
-0.290211 0.650043 4.66291 158 136 126
0.323931 0.659053 4.52707 84 70 62
0.361873 0.668333 4.56414 90 64 58
-0.0951922 0.684066 4.39671 75 62 60
-0.120943 0.712917 4.38468 35 14 4
0.913958 -1.05509 4.74833 95 76 42
0.791732 -0.866787 4.59596 104 70 34
0.772536 -0.820865 4.49185 154 132 106
0.764939 -0.756207 4.55205 92 68 40
1.69247 -0.677213 4.14398 113 86 56
0.791514 -0.613516 4.22974 104 68 50
1.64287 -0.627657 4.10403 111 105 73
1.0681 -0.564201 4.00742 79 57 50
-0.68161 -0.647462 5.31378 66 46 16
-1.4695 -0.473055 4.87943 141 96 73
1.46189 -0.478805 4.0725 96 97 84
1.52492 -0.453282 4.08897 152 132 111
1.68643 -0.394968 4.65983 102 50 28
1.00255 -0.343453 4.77253 142 126 85
0.996046 -0.188665 4.68839 154 110 91
-0.680596 0.0529166 4.88414 90 38 26
-1.38698 0.0950914 5.21214 92 56 44
0.95182 0.108097 4.94002 26 12 3
1.13285 0.13286 4.4803 222 190 166
1.08518 0.183595 4.60285 30 14 4
-1.58566 0.261935 4.57753 166 138 100
1.52124 0.226329 4.53282 179 154 136
1.29236 0.238865 4.55426 32 18 10
1.14828 0.288396 4.74015 94 75 58
0.219003 0.383783 4.6594 168 131 108
-1.61732 0.422769 4.54061 168 128 102
1.72985 0.425957 4.56516 130 100 86
1.42814 0.462437 4.47719 151 120 108
1.6244 0.517592 4.50658 174 150 135
-0.584758 0.656504 5.31767 206 155 124
1.59009 0.58267 4.5285 78 53 42
1.3689 0.606418 4.55373 134 50 46
1.20327 -1.02563 4.26872 191 147 122
1.78039 -0.893493 4.34621 100 70 39
1.61949 -0.671113 4.07091 158 138 114
1.03508 -0.572243 3.95646 78 56 47
-0.348905 -0.406328 5.07449 139 91 74
1.68212 -0.403393 4.61934 126 86 48
-1.36574 -0.276747 4.99466 146 89 74
1.01812 -0.349014 4.81677 142 130 88
1.21258 -0.284296 4.52017 157 64 50
1.12681 -0.267557 4.77543 62 29 10
-1.58805 -0.196362 5.16659 124 100 75
-0.787181 -0.217193 5.56404 66 26 10
1.49085 -0.136357 4.33122 46 28 16
1.4184 -0.116119 4.35589 185 135 110
1.04365 -0.119473 4.80189 47 16 3
1.44722 -0.0741168 4.35704 124 81 62
-1.50038 0.077829 5.19674 104 78 57
1.13982 0.0665327 4.49844 172 130 108
0.944609 0.12158 5.13138 146 124 98
0.893037 0.175486 5.04046 174 132 106
1.10853 0.235005 4.65375 20 16 12
1.8678 0.228701 4.71043 112 85 60
1.27093 0.233544 4.5328 25 18 17
1.49892 0.479408 4.483 146 82 60
-0.162475 0.491702 4.43359 90 30 25
1.47893 0.503762 4.49585 120 92 74
1.53469 0.503567 4.47457 156 134 130
1.58195 0.56246 4.51939 36 18 13
-0.592476 0.655968 5.33744 204 152 121
-0.317186 0.636712 4.73918 162 132 120
0.132603 0.710329 4.35165 150 100 98
-0.114683 0.739468 4.48547 44 21 14
0.0841166 0.743238 4.45265 34 18 10
-0.186713 0.93129 4.69138 76 40 32
1.71284 -0.782456 4.21363 155 131 106
1.55669 -0.7061 4.14093 142 117 94
0.991112 -0.58863 3.97874 158 130 118
1.42339 -0.564408 3.96716 96 54 31
0.798568 -0.580865 4.41125 87 68 59
-1.27799 -0.525512 5.06371 140 96 72
1.14732 -0.457753 4.06136 86 70 64
-1.53179 -0.405327 4.99294 45 16 6
1.64427 -0.393234 4.68218 24 10 2
1.70461 -0.3853 4.71952 132 91 66
1.69206 -0.358366 4.71239 148 118 92
-0.196901 -0.293407 5.1253 134 122 85
1.19652 -0.250565 4.67226 97 90 71
1.30813 -0.206101 4.32709 72 36 20
1.03825 -0.158161 4.81679 156 118 95
1.14728 -0.128324 4.44646 54 36 28
-1.03291 0.0546264 4.80983 72 18 2
-0.949841 0.140502 4.89221 91 41 28
0.898825 0.14389 5.10004 125 98 72
1.20944 0.198842 4.54253 184 157 138
1.56814 0.561761 4.49584 56 39 32
-0.490312 0.650134 5.22716 212 162 128
1.52249 0.58023 4.52022 68 40 28
0.222193 0.57878 4.47153 106 90 81
-0.35751 0.643454 4.7179 128 100 88
-1.39773 0.71155 5.20422 181 130 101
-0.346897 0.662958 4.70382 240 226 222
0.338692 0.650587 4.50833 96 72 65
-0.151226 0.656617 4.45006 203 180 168
1.28582 -1.03639 4.26233 121 103 59
1.56435 -0.712505 4.15089 140 118 96
1.64921 -0.678211 4.12081 158 142 120
-0.483484 -0.67343 5.02757 105 68 49
1.59586 -0.499486 4.12416 71 36 24
1.53163 -0.471596 4.08929 145 124 108
-1.5034 -0.420073 4.9345 43 14 6
-1.48068 -0.321201 4.94177 117 78 56
-1.58744 -0.171732 5.1744 116 91 65
0.997218 -0.174885 4.73413 158 122 102
-0.636094 -0.0473223 4.98171 154 102 74
-1.50056 0.0850634 5.21641 94 56 38
-0.785307 0.0862281 4.90699 84 32 18
-1.19742 0.112062 4.97201 151 96 73
0.964381 0.17245 4.94814 98 62 34
0.900442 0.220473 5.05917 104 69 33
1.10754 0.232016 4.65632 20 16 12
1.85809 0.233778 4.70268 122 84 57
1.55552 0.250654 4.5347 23 18 14
1.19651 0.388466 4.52153 104 57 37
1.7012 0.396646 4.57551 164 144 138
-0.52499 0.568302 5.19418 182 128 106
1.60069 0.518514 4.53317 37 18 13
0.921999 0.605073 4.89995 152 130 118
1.35666 0.606935 4.53802 134 51 46
-0.0701707 0.705183 4.37866 135 110 104
-0.129972 0.717624 4.42662 38 17 10
1.18272 -1.07298 4.34202 154 146 96
1.29803 -0.996323 4.29651 32 18 8
0.783381 -0.924405 4.67336 146 132 88
0.788708 -0.780121 4.56049 132 110 84
1.42226 -0.647304 3.99995 29 17 12
1.54482 -0.547706 4.05749 142 90 82
1.35233 -0.350541 4.57267 101 87 74
-0.619156 -0.141879 4.99573 124 79 50
1.03054 -0.187368 4.81036 151 107 86
0.955147 -0.119581 4.92885 115 90 68
0.963441 -0.116643 4.83173 148 113 92
1.35897 -0.0407089 4.41348 155 94 68
1.32572 -0.0180258 4.41885 36 12 8
-0.765439 0.0398949 4.90903 76 26 16
-0.777325 0.0635008 4.84058 178 120 104
0.986012 0.0195545 4.82045 147 114 92
-0.989797 0.0877126 4.7753 192 133 112
-1.48019 0.115737 5.25718 97 56 34
-0.971875 0.105382 4.84214 66 20 10
0.916382 0.122805 4.97448 38 21 10
1.15834 0.180518 4.55022 122 89 74
1.07604 0.196865 4.60152 62 45 38
1.12974 0.193914 4.60984 54 32 24
-1.49826 0.240017 4.6251 122 14 8
1.11986 0.221287 4.69435 26 18 15
1.11104 0.219251 4.59666 143 122 113
1.33101 0.246938 4.55165 160 124 99
-1.47405 0.340459 4.62998 134 12 12
-0.698005 0.627202 5.31031 162 111 82
-1.43797 0.651879 5.27356 138 94 69
1.53394 0.585268 4.50404 176 146 126
1.38611 0.605452 4.59154 164 104 94
1.10992 0.621543 4.66587 111 58 56
0.348234 0.618956 4.52895 99 77 64
-0.158491 0.965569 4.6678 94 65 55
1.43975 -0.871669 4.15535 114 95 64
-0.615206 -0.682538 5.2624 176 118 89
-0.66761 -0.576312 5.09649 58 34 12
1.06919 -0.553719 4.73422 143 106 86
-1.48132 -0.436718 4.94997 163 117 94
-1.51106 -0.377467 4.98307 147 105 86
1.09964 -0.424786 4.72951 98 38 16
-0.198877 -0.287589 4.99174 119 104 68
-0.896119 -0.214357 5.50256 86 52 18
1.45189 -0.172519 4.28225 176 149 127
1.13468 -0.0588455 4.50091 167 136 125
1.33867 -0.0115926 4.44647 38 16 12
1.2701 0.025466 4.48179 35 12 7
0.982932 0.0435192 4.90095 166 132 109
1.34936 0.0707996 4.38912 168 141 126
-0.780585 0.207349 5.49616 52 16 7
0.928649 0.171366 5.06504 148 92 63
1.22142 0.231908 4.4896 54 40 34
1.81363 0.288418 4.69595 110 68 39
-1.42765 0.327327 4.72877 124 17 18
0.080364 0.357481 5.61526 92 69 33
1.06041 0.398658 5.23637 166 108 88
1.02809 0.445055 4.65144 178 148 136
1.10889 0.512469 4.78581 160 117 102
-0.522739 0.560464 5.19701 190 137 116
1.15447 0.570692 4.65461 184 155 147
1.21239 0.647066 4.51682 138 50 34
0.0316065 0.623292 4.36032 96 67 52
-0.122517 0.671701 4.38 67 51 45
1.33732 -0.959431 4.27309 170 138 120
1.15095 -1.10857 4.99103 110 92 68
0.822765 -0.923695 4.64035 147 124 94
0.796819 -0.773981 4.63048 91 70 45
1.57522 -0.699495 4.15761 140 108 80
1.63326 -0.678973 4.07982 156 130 104
1.09989 -0.601414 3.97346 204 181 174
1.09162 -0.593873 3.97127 79 56 49
1.45112 -0.592947 3.94817 159 134 118
1.65262 -0.634237 4.11985 108 100 68
1.0715 -0.558396 4.00696 87 64 58
1.46799 -0.578089 3.98177 124 90 72
1.07111 -0.531611 3.97822 96 78 72
1.65549 -0.555988 4.17639 164 123 91
1.15358 -0.490116 4.04142 90 74 68
1.05813 -0.484397 4.07124 84 64 57
1.60639 -0.519349 4.1069 53 28 11
0.853332 -0.490573 4.19159 55 12 9
1.15567 -0.474522 4.05102 174 157 154
1.28617 -0.473412 4.02523 129 52 44
1.40083 -0.472031 4.01953 158 142 127
-1.22094 -0.518297 5.14184 85 56 18
1.03619 -0.455043 4.09103 145 124 116
1.21322 -0.44922 4.03103 184 165 159
1.58353 -0.476725 4.12304 134 104 86
-1.19818 -0.365892 5.20941 158 135 94
1.31897 -0.344644 4.4734 106 94 84
1.30781 -0.332245 4.49006 96 76 65
1.34158 -0.335191 4.52654 106 93 83
0.966258 -0.327427 4.69474 150 133 92
1.21341 -0.303356 4.38374 120 62 52
1.20254 -0.287149 4.33776 166 118 105
0.874059 -0.275566 4.66956 90 52 26
-0.732928 -0.298999 5.59872 94 64 27
1.26862 -0.244715 4.32777 236 192 170
-0.692779 -0.281993 5.51356 112 72 42
0.958291 -0.250183 4.68331 119 68 47
-0.896841 -0.230422 5.46819 96 66 36
0.879621 -0.220646 4.68407 205 173 155
1.02226 -0.212689 4.76602 142 92 68
1.26286 -0.179499 4.39764 72 18 7
1.2681 -0.156341 4.41378 100 51 34
1.43773 -0.157252 4.36123 185 132 106
0.895445 -0.160535 4.71506 68 35 14
-0.714416 -0.06479 5.06361 119 78 56
1.30529 -0.0771106 5.0829 148 134 108
1.15904 -0.0425386 4.47156 138 114 102
1.28123 -0.051352 5.00662 50 39 20
1.31675 -0.0418276 5.07609 66 48 28
0.917751 0.0698618 4.94519 52 28 14
0.983861 0.0762759 4.94384 56 26 6
0.89625 0.0996933 4.9282 62 40 20
0.946911 0.198649 5.01845 36 15 0
1.48093 0.23191 4.46475 139 118 106
1.74133 0.315555 4.66778 44 17 2
1.62941 0.537679 4.50516 106 80 65
0.245281 0.635201 4.50053 74 60 51
1.20858 0.76592 4.96314 197 169 158
0.000938785 0.677717 4.38073 185 144 134
0.0445989 0.69274 4.35852 90 74 66
1.19458 -1.00743 4.28327 160 110 78
1.23007 -0.972999 4.24237 43 20 10
0.789694 -0.777673 4.64714 116 98 58
1.14938 -0.603023 3.94915 201 171 156
1.18534 -0.604164 4.01483 166 148 142
1.35194 -0.576781 3.96886 154 122 106
1.62679 -0.621553 4.10137 150 136 118
1.10019 -0.54762 3.98585 168 149 146
1.60966 -0.582233 4.05499 110 107 68
1.60806 -0.564243 4.09381 154 124 98
1.03404 -0.499309 4.01585 176 152 144
1.14691 -0.484137 3.99848 102 84 79
1.15503 -0.492212 4.05134 90 74 69
1.19063 -0.49977 4.13791 158 146 142
1.19983 -0.483585 4.04668 107 89 84
1.60479 -0.517992 4.10788 42 21 4
1.3669 -0.483191 4.0331 97 98 84
1.40806 -0.476963 4.03331 147 135 120
-1.20726 -0.50448 5.03952 76 48 12
1.17352 -0.46175 4.08819 102 84 80
1.58539 -0.487192 4.10618 70 27 16
-0.628665 -0.514372 5.04534 95 22 3
-0.244355 -0.468477 5.14272 114 106 59
1.13443 -0.340871 4.80807 82 56 22
1.12699 -0.235668 4.31891 130 22 14
1.1576 -0.217033 4.3409 200 110 78
0.894654 -0.189137 4.72466 156 126 110
1.10847 -0.199219 4.82387 12 19 8
1.14418 -0.134498 4.44997 78 55 46
1.04382 -0.141613 4.76439 116 78 50
1.15192 -0.116511 4.43963 46 34 24
1.0527 -0.122169 4.76041 26 8 4
1.7172 -0.0655443 4.68152 169 136 111
0.953018 -0.0162152 4.95186 184 154 130
1.20222 -0.0282076 5.13648 162 149 124
-1.34779 0.0813428 5.05969 121 80 67
-0.762578 0.0877978 4.84593 122 66 50
1.48582 0.0767654 4.43064 104 89 70
-1.32386 0.152655 5.10209 158 117 93
1.4452 0.160874 4.63979 63 35 22
1.22193 0.206824 4.56945 174 145 126
1.24816 0.210822 4.50819 174 152 138
0.865508 0.244439 4.95773 139 104 80
0.881548 0.269288 5.02177 164 132 110
-1.60095 0.451603 5.88969 125 88 60
1.16224 0.396414 4.51738 139 98 80
1.58196 0.560959 4.52262 26 12 5
1.68782 0.60327 4.63394 70 49 36
-0.336276 0.634058 4.775 98 64 48
-0.313182 0.651142 4.83228 148 117 104
1.60749 0.803773 4.93463 205 184 178
1.36433 -0.893372 4.2295 68 60 50
0.74868 -0.759387 4.46294 108 83 52
1.18914 -0.629831 3.92572 60 36 22
1.10454 -0.588374 3.89848 167 146 138
1.08682 -0.620961 4.06817 158 134 128
0.781547 -0.699595 4.60504 102 96 68
1.10725 -0.560748 3.92377 194 180 176
1.35709 -0.577477 3.97331 154 122 106
1.36153 -0.534415 3.98711 119 88 72
1.05621 -0.521941 4.07162 106 80 73
1.09309 -0.498211 4.01232 97 82 78
-0.484164 -0.600836 5.06605 42 12 4
0.7906 -0.571711 4.52818 97 66 34
1.62451 -0.532002 4.10456 82 60 24
1.18619 -0.497425 4.06463 116 98 94
1.17874 -0.463636 4.10104 96 79 75
-0.34075 -0.409253 5.09283 141 91 72
1.0209 -0.38742 4.7369 169 120 90
-1.36575 -0.275665 4.99428 136 79 62
1.14714 -0.32172 4.50568 144 126 112
1.2155 -0.306715 4.3901 133 82 72
1.09836 -0.331442 4.72891 82 56 22
-0.693629 -0.301486 5.5046 112 76 43
1.72512 -0.318608 4.73862 100 93 64
1.18468 -0.271507 4.66798 137 126 96
1.38439 -0.25905 4.47622 174 123 104
1.02128 -0.202478 4.71681 53 21 10
0.89069 -0.18974 4.70015 162 132 113
1.26873 -0.159416 4.34248 174 125 102
-0.653804 -0.126283 5.02662 116 72 42
1.13187 -0.111599 4.39996 46 34 24
1.15802 -0.12821 4.88597 179 182 172
1.06923 -0.113404 4.82878 104 71 49
1.12551 -0.114536 4.85718 18 13 6
1.21224 -0.102255 5.00914 151 146 126
1.11719 -0.0500489 4.94309 144 126 101
1.12257 -0.0297242 4.98433 79 52 26
-1.33129 0.0765054 4.91861 44 14 9
-0.747187 0.133484 4.9698 100 54 36
1.35504 0.114473 4.49912 116 74 52
1.36488 0.143792 4.44788 32 14 8
0.944522 0.193733 5.00867 30 13 2
1.25785 0.214245 4.61169 103 76 60
1.52902 0.224449 4.48755 171 150 132
1.11112 0.240123 4.66503 22 14 11
1.4923 0.236911 4.50529 45 25 12
0.86546 0.260902 4.92415 161 134 115
0.914672 0.36298 5.19314 103 88 66
1.71269 0.330508 4.65964 58 32 8
1.64934 0.529973 4.57029 76 50 44
-0.330168 0.644865 4.85765 98 64 48
1.46285 0.671979 4.53728 179 154 144
-0.121393 0.699214 4.37744 59 42 34
-0.114315 0.729044 4.42267 41 20 14
1.29589 -0.982629 4.25637 38 18 10
0.807154 -0.848819 4.57998 150 132 112
1.57094 -0.706327 4.15836 142 113 86
1.29453 -0.61016 3.87793 22 10 2
1.09031 -0.595878 3.98021 98 78 70
1.14054 -0.590515 3.96341 221 202 195
1.3635 -0.538777 3.98935 115 78 60
1.44883 -0.520607 4.02565 115 100 88
0.839008 -0.518481 4.35725 104 66 45
1.19896 -0.481285 4.04313 107 89 84
1.52291 -0.454912 4.08193 149 132 111
1.4218 -0.436156 4.04134 158 136 124
0.978499 -0.305283 4.75155 98 27 12
1.19735 -0.256328 4.51826 128 20 8
1.30224 -0.233177 4.29678 108 75 51
1.16489 -0.269172 4.88362 55 17 7
-0.880617 -0.203213 5.26975 91 58 27
1.22713 -0.194226 4.34067 84 24 6
1.13993 -0.19204 4.39028 170 120 106
1.2989 -0.198174 4.39105 132 80 56
1.02663 -0.15313 4.782 161 120 101
0.964595 -0.141069 4.85647 158 126 102
1.14068 -0.127852 4.84523 127 132 122
1.27467 -0.041687 5.09091 32 16 4
-1.35717 0.0742166 5.05551 44 13 8
1.03614 0.0574207 4.92873 134 100 81
-1.4149 0.107335 5.24071 34 10 5
-1.36891 0.10681 5.18998 70 26 13
0.973914 0.0757873 4.92533 58 29 4
0.91084 0.094952 4.91832 176 148 133
-1.39023 0.144692 5.24957 66 29 11
-0.750789 0.13385 5.09788 92 44 27
1.16631 0.102501 4.47987 207 180 160
-1.35978 0.155562 5.29071 160 119 95
1.35338 0.12208 4.49702 128 82 60
0.913691 0.1437 5.13422 116 80 52
1.29583 0.210901 4.54544 138 108 93
1.87338 0.207664 4.75027 159 138 114
0.879881 0.26267 4.98111 160 130 116
1.73524 0.332112 4.69719 55 28 5
-1.62042 0.458958 5.97315 132 99 70
0.0861001 0.39584 4.92869 162 126 106
1.72694 0.3865 4.58255 162 137 124
1.07518 0.504233 4.62164 136 96 76
1.13565 0.563975 4.77373 254 240 234
1.15033 0.604095 4.62617 169 106 94
0.393732 0.633256 4.60571 104 88 76
-0.144761 0.698415 4.491 89 72 68
1.23048 -1.09715 4.22056 193 142 118
1.04793 -1.04496 4.80838 100 82 54
0.830017 -0.637407 4.29343 130 88 64
1.06494 -0.557628 3.94162 60 46 44
1.14446 -0.568892 4.00082 201 186 182
1.13558 -0.565223 4.09306 86 68 62
1.37227 -0.533688 3.96835 120 81 60
-0.663607 -0.631787 5.14859 59 27 14
1.07059 -0.517902 4.04693 91 68 59
-0.655222 -0.624664 5.25944 164 112 82
-1.54593 -0.448424 5.11246 46 18 6
-1.3979 -0.350498 5.03549 72 24 14
1.76612 -0.430819 4.82446 74 47 33
0.990704 -0.311169 4.79316 106 37 20
1.1761 -0.277984 4.42778 196 124 100
0.885238 -0.283714 4.73034 91 56 22
-0.693559 -0.277364 5.31518 120 80 50
1.4818 -0.224776 4.40664 160 126 99
0.99923 -0.199751 4.71574 149 98 76
0.927395 -0.134537 4.78357 152 121 98
1.12461 -0.118579 4.8828 15 8 6
-0.405715 -0.0618125 5.12355 54 14 4
1.52941 -0.0824215 4.50294 126 90 68
1.20353 -0.0324266 5.12994 160 148 123
1.14582 -0.0202178 5.06756 79 46 20
1.41633 0.0357832 4.43103 178 142 121
-0.778225 0.0864033 4.92868 91 36 22
1.00516 0.0570255 4.8767 152 116 97
0.938943 0.0932991 4.97247 156 127 112
-1.40326 0.144489 5.32464 66 29 11
-0.745094 0.133727 4.94521 92 44 27
-0.919613 0.143117 4.85667 136 96 80
-1.35552 0.157082 5.22736 166 128 104
1.48981 0.125615 4.60276 50 22 8
1.20087 0.179037 4.70357 154 122 102
1.58693 0.510588 4.49859 54 30 26
1.58675 0.526517 4.49796 47 24 21
-0.745296 0.629243 5.33003 72 28 14
-0.707076 0.621396 5.2908 162 110 84
-0.0518964 0.720175 4.48422 134 110 106
1.24993 -1.0422 4.29726 146 93 66
1.16632 -0.992458 4.3033 110 20 8
1.27364 -0.984275 4.25535 64 46 32
0.877053 -1.03763 4.69191 101 82 37
1.29306 -0.67468 4.08796 52 38 28
1.23511 -0.610165 4.00048 108 66 38
1.11237 -0.55909 3.94552 186 170 166
0.816925 -0.504827 4.31647 130 98 79
1.05172 -0.483535 4.70939 94 28 10
1.03902 -0.424766 4.774 96 42 14
-1.17655 -0.362924 5.08345 153 137 91
1.188 -0.305849 4.37924 118 37 23
1.20864 -0.286932 4.59639 159 132 118
-0.743577 -0.27373 5.54274 96 60 26
1.15017 -0.241126 4.58274 112 100 80
1.32537 -0.207459 4.35608 66 34 20
1.0513 -0.159812 4.80564 116 70 47
-1.5192 -0.0618291 4.84045 107 79 54
1.09433 -0.119627 4.82788 14 9 6
1.29726 -0.0908256 5.08417 100 86 57
-0.688612 0.0432334 5.04796 106 57 41
-0.792031 0.106217 4.87577 168 116 96
1.35719 0.0969144 4.52037 93 44 27
1.00246 0.108224 4.8502 32 17 10
0.939231 0.122267 5.15212 154 137 114
0.974694 0.214962 5.04912 40 18 4
1.52772 0.205009 4.50847 59 32 22
1.222 0.245023 4.50793 32 18 10
-1.40972 0.307191 4.74027 118 28 22
-0.00298897 0.360036 4.57707 131 114 92
-0.123009 0.498606 5.0955 30 6 4
1.68467 0.491195 4.58027 139 82 68
-0.278148 0.629319 4.46679 110 86 78
0.00606136 0.722638 4.4278 159 102 94
0.193298 0.841418 4.47143 146 32 30
-0.165857 0.913058 4.77339 67 24 14
-0.162954 0.980731 4.78485 118 89 80
1.21574 -1.04123 4.29967 156 104 76
0.791696 -0.795686 4.66008 108 80 38
1.12207 -0.567076 3.8272 118 77 48
1.2972 -0.602242 3.97707 162 139 130
0.784584 -0.596056 4.19453 129 88 65
0.862644 -0.592777 4.15257 151 116 104
1.3227 -0.571513 3.96572 162 141 134
-0.664458 -0.634907 5.09207 53 28 12
1.34172 -0.48245 3.99303 123 116 104
1.03098 -0.470537 4.12449 172 154 146
1.15792 -0.470067 4.11369 96 83 78
-1.50261 -0.489296 5.0991 134 92 67
1.01469 -0.458894 4.1317 132 104 96
0.963878 -0.410225 4.30453 98 63 31
-1.25195 -0.394512 4.96912 184 124 104
1.33083 -0.392299 4.37893 105 76 54
1.45065 -0.39229 4.2834 94 80 56
1.17174 -0.347291 4.63916 100 104 68
1.11482 -0.299351 4.43506 85 82 68
-1.57531 -0.236385 5.15445 140 130 98
1.19625 -0.283563 4.5631 156 130 114
1.40807 -0.20154 4.43885 18 10 9
1.60026 -0.158134 4.52177 152 130 114
1.2089 -0.0694202 4.45037 44 39 41
1.18369 -0.0872185 4.98962 160 148 128
-0.745701 0.0210595 4.86507 171 117 100
-1.3778 0.0669932 5.10237 34 13 9
-1.40977 0.0889444 5.16359 44 12 6
-1.48497 0.101868 5.16686 102 70 46
-0.786593 0.0894225 4.8992 97 44 28
1.19106 0.0699456 4.58912 174 135 114
-1.42921 0.12496 5.21228 138 116 98
-0.956075 0.111535 4.93907 161 110 96
-1.38613 0.132604 5.33651 64 26 16
1.25179 0.136148 4.43364 108 71 54
-1.49062 0.436588 5.22361 104 74 45
0.866922 0.437377 4.98491 109 86 64
-0.593763 0.578347 5.24159 171 117 92
-0.0521396 1.04789 4.93099 90 58 51
0.998165 -0.560125 3.89314 75 56 48
-1.42153 -0.367388 4.57946 42 18 9
1.00021 -0.361646 4.81209 144 139 93
1.20546 -0.335004 4.55153 166 138 128
-0.351118 -0.283456 5.01028 56 18 8
1.68074 -0.316088 4.69968 92 72 69
-1.57516 -0.147741 5.11745 156 140 120
-0.69214 -0.131149 4.98778 152 104 77
-1.47839 -0.103599 5.15567 106 60 42
1.10387 -0.0353169 4.85752 158 150 127
-0.928047 0.121983 5.03907 51 12 2
1.43997 0.105794 4.63712 97 58 36
-1.0312 0.186345 4.48824 114 65 42
0.938668 0.189075 5.00628 52 29 13
0.193238 0.408465 4.53866 138 36 25
1.12204 0.497954 5.4898 136 42 39
1.46067 0.518202 4.4427 184 150 132
-0.320891 0.597473 4.56418 156 130 116
0.31683 0.639607 4.44925 90 72 63
1.11625 0.668086 4.57859 36 18 15
-0.207022 0.889703 4.53485 100 63 54
0.763789 -0.76718 4.485 104 78 49
-1.14153 -0.0114064 4.97535 113 74 48
-0.7124 0.0153022 4.89439 116 68 53
-1.03903 0.0476353 4.83109 81 26 6
-1.49105 0.260404 4.60565 148 72 40
0.909012 0.360069 5.18095 104 90 67
1.52558 0.562174 4.46918 150 120 108
-1.4282 0.73694 5.38356 193 141 112
0.329395 0.646963 4.53641 131 118 110
1.12663 0.718701 4.8607 229 214 206
0.0994831 0.670246 4.37906 159 144 142
0.11705 0.807632 4.42989 68 22 17
-0.473851 -0.580742 5.0297 76 40 28
-1.2527 -0.510475 4.99059 118 88 68
0.959819 0.0739954 4.77277 142 111 89
1.46728 0.123816 4.55848 45 18 5
1.22943 0.22125 4.72321 118 89 74
1.36786 0.293869 4.56638 118 105 90
1.11736 0.548821 4.7788 214 198 193
-0.102999 0.648402 4.40427 150 138 136
0.0190869 0.648245 4.35969 170 150 142
0.801732 -0.601398 4.56702 149 124 102
-1.45167 -0.508502 4.92973 137 93 66
-0.865429 -0.234561 5.61927 157 141 113
-1.15126 -0.0108028 5.03045 118 79 52
0.974291 0.0742787 4.80668 144 113 92
0.903115 0.144376 5.10355 113 83 55
0.980385 0.183841 5.02024 115 88 69
0.0936937 0.664027 4.36121 150 137 134
0.813052 -0.920151 4.61244 148 124 95
-0.678041 -0.654905 5.22766 110 96 57
1.18117 0.397557 4.55267 138 99 85
-0.0512646 0.401462 4.44244 148 102 78
-0.192931 0.678211 4.44656 173 114 106
-0.0762931 0.892401 4.63837 172 142 142
0.79699 -0.656065 4.22543 142 96 69
-0.490224 -0.671903 5.02858 90 53 39
-1.13012 -0.225536 5.14172 95 56 29
-0.864188 -0.222359 5.47154 152 134 106
-0.894541 -0.211002 5.47045 90 54 20
-0.661675 -0.0426597 4.98082 74 28 10
0.912474 0.193263 4.94738 50 28 8
-0.147659 0.668498 4.48266 182 160 151
0.0374116 0.665703 4.37492 152 132 128
-1.38597 -0.346902 4.98489 72 24 16
-1.17831 -0.252781 5.16392 140 96 72
-0.67388 -0.0559873 4.91662 70 27 10
1.11353 0.553725 4.77341 196 180 175
-0.160375 0.688245 4.39946 100 88 82
-0.584534 -0.435056 5.25892 91 47 22
1.14415 0.56042 4.81247 230 218 214
1.23486 0.601567 4.56018 88 106 94
0.311712 0.613166 4.52668 152 134 118
1.14708 -0.989252 4.28959 137 82 56
0.898777 -1.05866 4.74852 119 100 57
-0.618921 -0.665366 5.05352 131 88 72
-0.659931 -0.628078 5.21872 82 52 40
-1.30388 -0.531967 5.02905 111 78 58
0.806209 -0.592307 4.58202 126 98 68
-0.651663 -0.600627 5.18655 158 110 88
-0.633305 -0.571476 5.09804 82 25 8
-1.48084 -0.483655 4.94643 178 132 105
-0.680424 -0.550647 5.23323 116 101 74
-0.622984 -0.518128 5.05816 88 18 4
-1.52191 -0.428469 4.97657 130 89 72
1.0616 -0.45749 4.85513 173 159 112
-0.240911 -0.394404 5.11994 134 111 90
-0.58256 -0.373404 5.09955 186 132 102
1.106 -0.397117 4.76798 151 131 89
0.996468 -0.381864 4.71593 159 110 86
1.07118 -0.400485 4.87416 176 152 112
-0.342069 -0.309859 5.10335 127 81 66
0.899158 -0.290786 4.69142 80 20 4
0.874111 -0.283454 4.70105 97 58 36
0.946768 -0.285472 4.68914 169 122 101
1.04095 -0.284362 4.76762 166 99 80
1.26945 -0.26749 4.62588 156 128 117
1.17001 -0.203532 4.39925 161 72 51
-1.87341 -0.0236643 4.25055 94 94 124
-0.372278 -0.0323824 5.21924 56 17 6
1.04313 0.178127 5.32833 114 96 70
0.884457 0.172047 5.05321 149 104 77
-1.88025 0.159652 4.28351 185 72 74
-1.72332 0.181463 4.34832 160 112 110
-1.72768 0.204834 4.27954 68 32 30
-1.72135 0.211155 4.36328 154 114 111
-1.73162 0.215699 4.3036 46 18 15
-1.92323 0.219913 4.26898 79 38 32
-1.99365 0.384595 4.44204 132 53 28
-2.00136 0.3866 4.44012 168 134 106
-0.143278 0.479823 4.37614 36 10 9
-1.7511 0.469721 4.42573 124 118 125
-1.74913 0.481264 4.45215 114 110 118
-1.71692 0.507275 4.47584 105 100 112
-1.70633 0.510364 4.47524 120 112 126
-0.340576 0.625042 4.71971 116 95 82
-0.2232 0.633643 4.73532 156 118 106
-1.72686 0.510993 4.47231 36 32 46
-0.247015 0.638459 4.70703 140 116 105
-0.260984 0.610585 4.51376 198 171 165
-0.00180311 0.594423 4.30646 58 38 27
0.326437 0.646952 4.52847 150 129 122
-0.254257 0.609903 4.48083 136 88 86
-0.307539 0.648217 4.66589 122 100 93
-1.76641 0.535267 4.48962 124 118 130
0.300007 0.67092 4.5205 166 116 106
-0.356705 0.662815 4.69279 186 164 152
-0.077836 0.617335 4.27161 58 34 22
-1.09139 0.709356 5.19009 51 16 10
-0.359697 0.671416 4.68628 120 96 84
-0.345659 0.665564 4.64817 92 72 68
0.367027 0.695019 4.55564 82 62 54
-0.151974 0.660697 4.43693 242 226 218
-0.100821 0.661381 4.40958 171 158 155
-2.00435 0.552314 4.42431 132 92 44
0.0825048 0.677279 4.34851 82 68 64
-0.136258 0.674442 4.39514 59 46 40
0.0656785 0.688031 4.3459 128 115 110
0.0599914 0.698595 4.38369 64 47 40
-0.175401 0.689286 4.41917 166 150 142
-0.163076 0.68393 4.37639 138 126 121
-0.142794 0.690487 4.38415 178 162 156
-0.154764 0.716504 4.41483 88 74 72
-1.65777 0.691192 4.6327 146 80 54
-1.63977 0.686945 4.61192 130 48 36
-0.110371 0.905345 4.65408 154 135 132
-1.81741 0.745304 4.56124 146 84 50
-1.78069 0.900053 4.66772 136 56 36
0.905358 -1.06006 4.77103 132 116 72
0.885142 -0.800157 4.7866 132 80 50
-0.568847 -0.652291 5.03912 85 40 24
0.796321 -0.63872 4.61518 90 73 48
0.796402 -0.624218 4.58834 122 100 74
-0.566382 -0.600076 5.04645 178 116 95
-1.4589 -0.520528 4.96801 118 78 55
-1.48037 -0.48728 4.96342 168 120 95
-1.51616 -0.447868 4.97435 72 34 16
-1.51522 -0.420004 4.99034 92 56 39
-1.53022 -0.412122 4.99465 54 22 8
-0.259492 -0.491479 5.16967 146 134 104
1.0177 -0.452814 4.79719 169 148 104
-0.564297 -0.378825 5.12574 213 158 129
1.07167 -0.394927 4.73266 111 78 42
1.05607 -0.385482 4.86571 110 72 41
0.926378 -0.295185 4.72527 77 14 0
1.21684 -0.291574 4.62242 97 83 68
0.957607 -0.284572 4.70185 167 122 102
1.0528 -0.286453 4.7784 158 89 70
1.09217 -0.199691 4.32593 158 70 50
1.04324 -0.136529 4.79608 93 61 44
1.0536 -0.121693 4.78129 22 12 2
-0.278256 -0.0742165 5.13662 94 76 56
-0.379538 -0.0343375 5.20274 58 20 10
-1.88227 0.0281959 4.29133 97 80 84
-1.73622 0.172175 4.29994 130 56 56
-1.72091 0.183053 4.354 155 96 97
-1.94332 0.185083 4.30754 189 131 122
-1.9184 0.228903 4.27592 77 33 28
-1.9106 0.228832 4.27152 177 133 126
-1.67766 0.269278 4.56091 96 50 19
0.202002 0.38118 4.59348 128 81 62
-0.199693 0.398379 4.69836 137 75 64
0.967498 0.489144 4.77596 101 77 74
-1.75174 0.465613 4.4074 110 102 110
-1.7494 0.479349 4.43872 114 110 118
-0.339139 0.613355 4.67991 112 92 78
-1.70802 0.511621 4.48085 98 92 105
-0.292835 0.612278 4.60534 146 123 110
-0.328963 0.625902 4.65386 150 130 118
-0.0115793 0.588221 4.28862 60 41 30
-1.40182 0.665363 5.27923 182 130 109
-0.240397 0.619127 4.5553 162 134 128
-0.329207 0.661718 4.73648 98 77 69
0.296968 0.667694 4.51369 162 109 98
-0.352546 0.662974 4.69893 183 160 150
0.34493 0.680284 4.51651 76 56 48
-0.321951 0.672902 4.65383 142 120 109
-0.14268 0.666319 4.45522 198 179 172
0.0721133 0.683871 4.45291 159 142 134
-2.00651 0.550668 4.43287 130 87 38
-0.166576 0.6674 4.40426 218 200 194
0.0447852 0.661065 4.2939 89 74 70
-0.125466 0.667007 4.36666 69 58 56
0.0378957 0.68133 4.38707 184 168 160
-0.138584 0.691445 4.39377 132 116 110
0.0682564 0.709818 4.32792 46 32 28
0.101067 0.728803 4.35792 168 152 149
-0.13224 0.725966 4.38684 46 26 20
-1.84265 0.671296 4.494 43 26 34
0.185759 0.8363 4.44357 135 50 45
-1.82553 0.750169 4.53671 116 32 10
-1.76073 0.842819 4.82658 140 97 90
-1.7789 0.830982 4.75648 160 122 107
-0.121111 0.970186 4.62097 102 72 64
-1.8953 0.85396 4.67291 142 74 38
-1.90127 0.89161 4.73654 160 91 82
0.963618 -1.08136 4.83308 109 89 48
-0.43738 -0.744503 5.06527 36 20 6
0.885172 -0.779147 4.81297 132 99 60
-0.485502 -0.672649 5.03718 106 68 50
0.851419 -0.680475 4.67442 82 72 50
0.876954 -0.686853 4.77869 106 98 52
